NCOLS   196
NROWS   69
XLLCENTER -130
YLLCENTER  41.2
CELLSIZE 0.066666666667
NODATA_VALUE   -32768
-2139  -2247  -2386  -2447  -2557  -2614  -2661  -2700  -2702  -2711  -2702  -2702  -2721  -2734  -2774  -2764  -2771  -2761  -2761  -2785  -2824  -2800  -2768  -2746  -2771  -2781  -2815  -2853  -2854  -2826  -2870  -2880  -2875  -2857  -2871  -2871  -2881  -2847  -2834  -2834  -2837  -2849  -2811  -2811  -2829  -2810  -2798  -2817  -2777  -2758  -2742  -2724  -2713  -2710  -2701  -2662  -2644  -2621  -2576  -2546  -2461  -2433  -2457  -2404  -2313  -2272  -2225  -2278  -2280  -1793  -1670  -1910  -1926  -1660  -1460  -1187  -1503   -836   -602   -285   -238   -213   -193   -178   -157   -143   -135   -111    -91    -74    -43    124      3    338    184    465    288    683    703    713    364    342    228    522    268    480    138      4      1     20     63     63     91    155    422    507    781    852    439    688    695    378    535    187    406    651    446    115    386    594    286    305    414    599    587    492    481    503    609    583     90    319    138    347    350    217    155     83    243    205    185    177    175    178    195    197    190    200    256    235    205    197    205    293    309    359    388    439    472    475    458    452    536    620    861    898    767    841    971   1226   1511   1181    887   1117   1299   1236   1305   1260   1304   1363   1294   1412   1409   1264   1196   1312
-2337  -2459  -2356  -2457  -2497  -2600  -2684  -2689  -2713  -2704  -2701  -2690  -2664  -2708  -2783  -2769  -2771  -2762  -2760  -2778  -2773  -2779  -2793  -2766  -2750  -2775  -2794  -2819  -2862  -2852  -2864  -2885  -2937  -2925  -2903  -2904  -2924  -2873  -2843  -2837  -2828  -2847  -2832  -2827  -2847  -2814  -2793  -2780  -2800  -2766  -2747  -2734  -2711  -2694  -2697  -2674  -2636  -2600  -2577  -2547  -2499  -2482  -2475  -2426  -2360  -2251  -2239  -2278  -2349  -1859  -2082  -1598  -1852  -1646  -1583  -1627  -1379  -1059   -803   -381   -359   -274   -217   -195   -164   -150   -131   -109    -92    -71    -47      0    281    271    603    362    799    845    859    783    370    277    254    159    144    232    343      6      3      0     52     89     64     92    269    232    451    397    486    678    324    113    219    875    716    857    401    161    549    269    322    304    145    297    261    267    239     66    264    321    385    403    164    324    319    369    363    303    237    193    213    236    216    219    234    225    267    262    318    259    269    282    300    308    289    291    412    347    333    379    386    434    526    621    690    953   1383   1236   1344   1462   1226   1046    866   1041   1019   1100   1100   1077   1206   1357   1438   1362   1264   1182   1295   1312
-2354  -2427  -2409  -2499  -2332  -2574  -2692  -2682  -2685  -2710  -2703  -2703  -2720  -2802  -2816  -2733  -2729  -2741  -2776  -2800  -2791  -2780  -2778  -2797  -2786  -2804  -2796  -2796  -2805  -2875  -2897  -2894  -2891  -2889  -2878  -2904  -2900  -2856  -2842  -2838  -2840  -2846  -2908  -2852  -2841  -2813  -2805  -2804  -2805  -2814  -2777  -2745  -2725  -2692  -2672  -2686  -2640  -2616  -2590  -2559  -2509  -2529  -2511  -2480  -2349  -2354  -2371  -2385  -2421  -1823  -2118  -1852  -1355  -1034  -1483  -1627  -1453  -1293   -768   -435   -417   -383   -276   -213   -183   -161   -137   -117    -94    -73    -43     87    100    514    307    606    363    360    401    566    539    259    161     58     51     58     87    122    209     16      0     -1     27    101     85    107    284    264    148      0    642    641    503   1193    913    599    539    450    732    621    553    229     71     86    195    290    314    360    348    380    431    460    419    325    252    325    297    294    301    288    290    274    274    337    378    284    336    341    377    420    402    477    485    498    558    625    518    457    405    437    522    887   1112   1130   1000    805   1321   1495   1429   1164   1213    852    939   1059    956   1155   1022    948   1052   1190   1355   1343   1432   1213   1381   1368
-2404  -2420  -2398  -2263  -2581  -2683  -2687  -2658  -2662  -2675  -2683  -2699  -2742  -2784  -2784  -2749  -2752  -2760  -2788  -2811  -2762  -2787  -2800  -2787  -2797  -2803  -2802  -2802  -2807  -2833  -2912  -2891  -2894  -2896  -2870  -2858  -2882  -2863  -2853  -2850  -2868  -2883  -2868  -2871  -2838  -2833  -2825  -2823  -2803  -2811  -2763  -2765  -2763  -2721  -2699  -2676  -2651  -2625  -2610  -2598  -2548  -2530  -2504  -2463  -2459  -2424  -2429  -2455  -2467  -2340  -2155  -2044  -1533  -1470  -1636  -1648  -1448  -1120   -739   -476   -448   -459   -455   -243   -195   -172   -157   -122    -98    -70    -31      0    157    268    407    299    309    361    714    864    573    392    429     73     53     51     57     64    131    216      7     69     90     60     70    154    148    347    671    987    985    985    807    728    585    821    479    984   1067    734    476    612    358    334    327    314    408    270    575    587    511    435    421    437    346    270    351    360    367    318    349    339    390    448    441    374    423    450    524    508    520    568    672    755    783    710    658    524    447    517    786    766    969   1198   1209   1238    944   1428   1691    956    958    929    924   1080   1247   1254   1450   1191    965   1111   1219   1285   1278   1387   1458   1504
-2459  -2389  -2510  -2492  -2679  -2682  -2663  -2650  -2626  -2674  -2713  -2769  -2713  -2737  -2808  -2758  -2756  -2770  -2765  -2804  -2857  -2892  -2848  -2827  -2817  -2825  -2802  -2806  -2817  -2833  -2878  -2930  -2909  -2887  -2866  -2853  -2842  -2879  -2871  -2863  -2866  -2893  -2889  -2872  -2887  -2862  -2828  -2809  -2804  -2796  -2790  -2761  -2747  -2731  -2711  -2695  -2688  -2660  -2631  -2593  -2555  -2492  -2488  -2458  -2512  -2513  -2512  -2514  -2497  -1796  -2073  -1921  -1934  -1622  -1631  -1640  -1291  -1026   -726   -402   -516   -479   -470   -312   -203   -182   -166   -129   -101    -70    -22    280      0      7    240    398    394    494    387    517    382    251    106     52    128     55     48    112     71    120      1     75    151    141    137    178    166    414    617    598    787    943    972    947   1329   1043    809   1119    907    867    730    601    419    462    423    577    759    415    681    606    592    558    586    382    271    446    439    470    396    484    400    481    521    528    419    533    679    683    658    741    785    808    831    832    759    789    667    578    600    729   1010    709    904   1258   1274   1100   1010   1405   1506   1013    826    813   1157   1283   1632   1374   1710   1547   1553   1119   1202   1291   1248   1399   1445   1188
-2399  -2420  -2499  -2652  -2688  -2667  -2634  -2630  -2562  -2647  -2725  -2811  -2750  -2727  -2809  -2785  -2843  -2850  -2799  -2818  -2863  -2827  -2709  -2746  -2835  -2838  -2799  -2803  -2851  -2858  -2864  -2916  -2929  -2892  -2867  -2854  -2846  -2859  -2947  -2932  -2918  -2912  -2898  -2871  -2871  -2879  -2842  -2834  -2817  -2800  -2786  -2771  -2761  -2761  -2756  -2724  -2702  -2676  -2643  -2599  -2536  -2531  -2583  -2558  -2578  -2583  -2571  -2526  -2520  -2493  -1807  -1801  -1530  -1614  -1628  -1434  -1143   -896   -749   -560   -386   -396   -418   -400   -242   -184   -172   -135   -101    -72    -32      1     39     26    342    525    293    557    622    574    461    165    164    109    290    142     50     42     53     58    148     74     38     90    137    208    255    288    334    576    885   1082    974    997   1669   1853   1259   1432   1285   1027    842    659    606    583    649    826    732    256    718    635    713    690    416    505    660    642    647    599    705    445    551    566    609    531    580    572    604    814    907    935    955    916    958    903    796    913    759    797    771    868   1138   1308   1045   1369   1366   1214   1169   1237   1364    872    840    817    992   1459   1703   1209   1875   1602   2273   1893   1309   1172   1222   1289   1436   1391
-2373  -2461  -2505  -2703  -2684  -2667  -2652  -2664  -2664  -2697  -2719  -2724  -2758  -2770  -2799  -2794  -2822  -2825  -2794  -2823  -2838  -2807  -2767  -2786  -2837  -2815  -2848  -2813  -2829  -2837  -2840  -2936  -2980  -2917  -2864  -2866  -2852  -2856  -2929  -2878  -2911  -2912  -2894  -2869  -2865  -2874  -2855  -2840  -2827  -2813  -2813  -2804  -2788  -2774  -2759  -2739  -2726  -2693  -2666  -2626  -2591  -2569  -2587  -2618  -2633  -2628  -2593  -2565  -2537  -2542  -1660  -1872  -1495  -1471  -1631  -1452  -1011   -869   -674   -536   -485   -419   -404   -396   -333   -201   -174   -140   -104    -71    -24    178     92    233    384    414    651    600    676    518    266    190     48     86     80     80    239    123     61     85     30    139     86    164    138    131    322    447    569    860    804    695   1234   1234   1679   1730   1377   1552   1500   1284    726    710    747    778    800    618    308    708    721    712    736    756    306    639    730    754    748    765    739    514    591    640    625    717    645    756    826    718    887    906   1046    972    995    955    922   1032    962   1096   1415   1278   1480   1378   1249   1377   1279   1118   1009   1108   1130    838    821    818    820    949   1937   1811   1296   2223   2239   1780   2383   1412   1387   1336   1449   1426
-2408  -2494  -2622  -2697  -2651  -2654  -2671  -2703  -2746  -2739  -2747  -2762  -2772  -2791  -2812  -2797  -2796  -2785  -2814  -2815  -2812  -2809  -2822  -2804  -2832  -2812  -2843  -2844  -2824  -2809  -2776  -2837  -2917  -2969  -2920  -2918  -2841  -2852  -2920  -2977  -2930  -2895  -2902  -2890  -2878  -2884  -2862  -2854  -2850  -2841  -2828  -2816  -2801  -2793  -2773  -2753  -2730  -2689  -2685  -2657  -2642  -2634  -2642  -2684  -2692  -2665  -2640  -2597  -2586  -1889  -1756  -2026  -1602  -1631  -1626  -1279  -1020   -863   -699   -521   -478   -482   -434   -407   -380   -220   -179   -145   -103    -68    -31    244    284    136    195    303    379    673    744    706    398    222     48     62    240     41     30     96     55     27     52    115    213    259    296    312    348    487    715   1122   1091    645   1256   1132   1176   1266   1468   1578   1128    798    603    531    463    471    435    502    676    695    690    728    792    645    405    706    842    882    914    862    801    828    792    753    771    818    790    763    800    928   1002   1052   1116   1265   1232   1180   1178   1225   1413   1510   1513   1511   1439   1351   1224   1136   1072   1197   1104   1159   1400   1266    822    818    824   1035   1520   1695   2132   1378   1803   2128   2340   2622   1834   1938   1725   1621
-2461  -2573  -2684  -2565  -2587  -2655  -2640  -2650  -2697  -2754  -2766  -2784  -2777  -2791  -2827  -2815  -2798  -2805  -2815  -2827  -2814  -2817  -2819  -2814  -2836  -2821  -2825  -2848  -2837  -2816  -2811  -2842  -2871  -2933  -2989  -2889  -2848  -2853  -2943  -2943  -2904  -2879  -2875  -2875  -2876  -2893  -2886  -2875  -2861  -2847  -2837  -2829  -2816  -2801  -2782  -2768  -2751  -2738  -2712  -2696  -2693  -2683  -2690  -2723  -2713  -2699  -2701  -2511  -2609  -2228  -1973  -1865  -1709  -1634  -1429  -1097   -889   -803   -680   -574   -520   -407   -418   -403   -389   -243   -180   -144   -103    -64    -34     19    264    375    528    499    443    486    343    287    264    112     45     47     49     45     50     53     51     50     64     73    114    256    309    369    512    548    762   1069    879   1119    985   1237   1181   1198    931   1102    931    721    614    539    521    518    452    510    520    553    720    794    792    788    482    553    723    816    809    802    820    852    855    772    816    938    982   1042   1038    966   1054   1260   1317   1570   1509   1489   1415   1211   1126   1172   1357   1375   1420   1431   1473   1291   1150   1495   1379   1537   1453   1370   1144   1319    848    979   1313   1829   1900   2186   2115   2432   2283   2191   2414   2492   1824   1724
-2498  -2597  -2578  -2147  -2623  -2695  -2644  -2688  -2737  -2767  -2737  -2767  -2790  -2801  -2860  -2849  -2831  -2856  -2861  -2857  -2871  -2831  -2823  -2840  -2809  -2850  -2877  -2922  -2882  -2921  -2897  -2876  -2858  -2889  -2958  -2959  -2885  -2866  -2887  -2968  -2896  -2905  -2870  -2866  -2893  -2907  -2899  -2887  -2875  -2863  -2851  -2839  -2830  -2813  -2791  -2775  -2766  -2759  -2742  -2727  -2710  -2720  -2751  -2759  -2742  -2728  -2705  -2687  -2681  -2132  -1959  -1820  -1785  -1588  -1424  -1050   -779   -726   -633   -349   -552   -385   -338   -369   -350   -229   -177   -138    -99    -60    -28    208    306    252    373    256    269    239    234    180    134     43     93    126     49     49     54     55     46     58     70    114    137    311    471    956    864    898    984    744   1404   1067   1300   1094   1091   1115   1027   1016    938    720    653    618    567    457    540    561    638    749    817    745    801    783    712    417    748    790    808    807    832    938   1038    940   1134   1010   1051   1079   1238   1283   1322   1535   1504   1555   1522   1459   1378   1185   1024   1099   1206   1344   1546   1560   1420   1480   1615   1437   1824   1666   1684   1548   1309   1138   1097   1324   1128   1408   1556   1994   2332   1957   2405   2305   2167   2050   1983   1864
-2586  -2728  -2690  -2707  -2669  -2642  -2673  -2729  -2710  -2704  -2709  -2738  -2753  -2752  -2816  -2826  -2851  -2860  -2769  -2813  -2731  -2707  -2819  -2833  -2865  -2848  -2822  -2830  -2854  -2868  -2860  -2851  -2843  -2856  -2884  -2961  -2948  -2946  -2932  -2907  -2962  -2916  -2873  -2861  -2865  -2879  -2893  -2853  -2872  -2870  -2864  -2851  -2837  -2819  -2797  -2774  -2757  -2774  -2769  -2758  -2742  -2762  -2783  -2786  -2769  -2748  -2734  -2709  -2686  -2311  -1798  -1280  -1380  -1480  -1319  -1117   -861   -699   -608   -436   -389   -431   -365   -349   -293   -208   -169   -132    -94    -57    233    213    355    306    230    195    116    187     91    103     58     53     57    277     40     40     55     45     54     80    129    252    430    377    755    781   1095    821   1111    514    789    828    941   1089   1178   1521   1226    884    886    836    966    808    729    629    836    873    826    843    971    863    918    861    863    531    672    766    867   1002   1066   1086   1211   1276    933   1240   1302   1211   1277   1259   1259   1354   1368   1385   1362   1377   1348   1167   1225   1429   1547   1432   1567   1772   1681   1462   1341   1490   1659   1899   1481   1264   1115   1031   1022   1077   1342   1152   1589   1685   1749   1698   1849   2278   2306   2165   2101   1751
-2613  -2756  -2660  -2688  -2700  -2688  -2663  -2688  -2680  -2628  -2634  -2643  -2711  -2786  -2790  -2823  -2825  -2825  -2725  -2760  -2519  -2631  -2837  -2861  -2880  -2846  -2857  -2853  -2870  -2891  -2866  -2852  -2827  -2804  -2722  -2883  -2905  -2932  -2942  -2955  -2966  -2929  -2853  -2839  -2855  -2874  -2905  -2876  -2863  -2850  -2843  -2845  -2855  -2824  -2799  -2777  -2781  -2775  -2791  -2789  -2783  -2784  -2810  -2806  -2792  -2779  -2754  -2734  -2761  -2506  -1955  -1472  -1330  -1299  -1299   -955   -853   -780   -651   -541   -421   -448   -421   -340   -249   -182   -159   -118    -89    -47     34    162    179    572    739    522    397    373    242    195     71     74    105    144     42     47     56     59     78    204    209    337    573    598    957   1032    991   1340   1335    608    985   1083    966   1257   1115   1017   1061    820    805    988    803    898    909   1043    535   1004    884    966   1038    970    979    935    909    539   1069    956    959    857   1104   1096   1337   1251   1336   1304   1354   1268   1186   1172   1141   1028   1035    890   1189    984    891   1057    975   1175   1105   1359   1557   1639   1673   1701   1794   1911   1898   2079   1642   1117   1044   1004   1051   1101   1207   1001   1162   1509   1615   1359   1612   2009   1489   1586   1441   1549
-2624  -2709  -2598  -2643  -2660  -2692  -2743  -2748  -2738  -2680  -2639  -2627  -2714  -2807  -2846  -2831  -2838  -2844  -2793  -2672  -2595  -2636  -2807  -2870  -2833  -2761  -2829  -2868  -2862  -2865  -2881  -2838  -2836  -2842  -2742  -2874  -2898  -2888  -2888  -2910  -2976  -2886  -2742  -2784  -2872  -2903  -2916  -2881  -2858  -2866  -2883  -2864  -2828  -2817  -2809  -2795  -2797  -2808  -2830  -2836  -2807  -2813  -2837  -2827  -2811  -2803  -2760  -2769  -2782  -2758  -2418  -1598  -1316  -1220  -1055   -941   -645   -634   -510   -532   -428   -451   -410   -292   -202   -162   -145   -109    -79    -38     45    443    327    493    658    580    978    593    530    371    126     73     55     81     49     59     67     87    186    276    484    586    632    811   1033    721   1158    871    964   1019   1005   1187    945   1511   1397   1200    919    946    802    799    828    949   1250    763    485    896    968    910   1028   1031    918   1095    714    421    641    943   1115   1118   1140   1262   1270   1295   1065   1081   1016   1312   1040   1002    849    887    953   1042   1091   1100   1380   1246   1231   1224   1479   1650   1463   1468   1863   1727   1695   1936   2131   2164   2194   1262   1053   1017   1029   1241   1077    932   1026   1171   1278   1301   1158   1253   1351    974    995    952
-2735  -2715  -2733  -2705  -2613  -2654  -2681  -2732  -2701  -2718  -2688  -2721  -2792  -2801  -2775  -2770  -2840  -2829  -2789  -2679  -2641  -2490  -2742  -2808  -2809  -2687  -2848  -2862  -2860  -2886  -2886  -2916  -2898  -2873  -2886  -2901  -2852  -2860  -2877  -2920  -3040  -2832  -2743  -2773  -2922  -2926  -2916  -2869  -2873  -2889  -2867  -2843  -2831  -2835  -2835  -2807  -2817  -2825  -2890  -2818  -2825  -2836  -2854  -2837  -2827  -2803  -2780  -2792  -2807  -2738  -2192  -2080  -1512  -1830  -1346   -923   -584   -422   -292   -403   -350   -378   -268   -188   -162   -148   -123    -98    -61    -24    155     64    289    525    341    460    794    404    277    127    126     88     53    157    188    135    143    131    175    277    454    672    784    942   1095   1062    833   1199   1342   1271   1150   1319   1047   1279   1444   1389   1092    906    815    786    698    730    497    569    382    785    883    780    710    872    978   1126    735    527    574    674   1023   1222   1121    975   1061    805    942    663    776   1273   1239   1205   1069    753   1099   1071    956   1070    895   1216   1381   1557   1557   1627   1907   1494   1518   1726   1720   2095   2189   2319   2213   2197   1145   1033   1016   1019   1089    904    822    859    948   1176   1299   1168   1218    992    766    945
-2837  -2709  -2747  -2698  -2724  -2739  -2764  -2742  -2761  -2818  -2818  -2827  -2836  -2840  -2845  -2825  -2859  -2867  -2832  -2836  -2819  -2625  -2665  -2860  -2876  -2872  -2856  -2866  -2867  -2878  -2851  -2929  -2933  -2897  -2882  -2907  -2858  -2863  -2905  -3015  -3047  -2982  -2939  -2898  -2918  -2924  -2911  -2885  -2872  -2853  -2848  -2842  -2845  -2832  -2827  -2820  -2820  -2844  -2831  -2847  -2857  -2862  -2871  -2844  -2829  -2823  -2808  -2810  -2821  -2829  -2242  -1418  -1555  -1829  -1469   -829   -603   -477   -434   -371   -366   -303   -199   -162   -137   -124   -108    -76    -60      1     53     50    140    392    424    317    301    715    241    136     68     74     92     50     72    234    100    116    138    181    324    311    362    410    480    952   1016   1099   1234    829   1032   1088   1037   1592   1408   1414   1126   1012    886    773    772    492    629    524    516    661    553    804    821   1093    983    865    659    620    492    754    963    719   1178    819    579    774    823    741    646    848    734    601    727    702   1123   1145   1111   1088   1219   1169   1043   1187   1647   1963   1884   1824   1745   1534   1488   1685   1631   1603   1921   2362   1453   1087   1033   1035   1180   1039    949    938    888    959    912    857    758    907    978   1019
-2787  -2690  -2749  -2780  -2686  -2704  -2747  -2750  -2752  -2802  -2798  -2771  -2785  -2825  -2829  -2834  -2844  -2849  -2845  -2844  -2838  -2854  -2857  -2855  -2857  -2860  -2842  -2861  -2870  -2834  -2680  -2772  -2889  -2895  -2863  -2901  -2873  -2872  -2891  -3027  -2979  -2923  -2899  -2888  -2879  -2881  -2878  -2879  -2876  -2870  -2861  -2864  -2843  -2844  -2845  -2832  -2834  -2841  -2854  -2872  -2866  -2896  -2862  -2854  -2845  -2843  -2833  -2831  -2851  -2865  -2389  -1275  -1328  -1539  -1149   -854   -607   -537   -427   -371   -290   -245   -163   -131   -113   -102    -81    -69    -53     -5    125     71     84    119    160    313    519    204    162    161    181     65     63     55     60     82     91    114    204    258    192    626    472    410    465    804    547    829    722   1061   1236   1186   1130   1975   1652   1393   1219   1069    975    769    634    612    707    725    681    729    800    992    993    941   1183   1088    798    741    773    540    555    750    512    946    965   1092   1225   1208   1080    997   1307    930   1165    975   1100   1336   1297   1147   1168   1473   1359   1296   1325   1711   2109   2272   2082   1691   1627   1628   1715   1356   1353   1455   1881   1449   1153   1120   1404   1334   1254   1207   1327   1446   1349   1000    803    701    822    996
-2871  -2915  -2863  -2917  -3021  -2789  -2800  -2819  -2826  -2815  -2763  -2264  -2350  -2533  -2793  -2848  -2844  -2873  -2869  -2866  -2860  -2880  -2822  -2707  -2799  -2845  -2828  -2863  -2859  -2875  -2607  -2692  -2879  -2906  -2906  -2917  -2887  -2865  -2882  -2934  -2962  -2908  -2888  -2909  -2906  -2892  -2895  -2895  -2907  -2903  -2882  -2873  -2870  -2849  -2872  -2864  -2851  -2858  -2875  -2878  -2882  -2891  -2874  -2863  -2863  -2857  -2853  -2850  -2851  -2867  -2645  -2285  -1618   -792   -906   -960   -666   -452   -372   -188   -304   -203   -150   -112    -89    -85    -76    -65    -47     -2    124     60    154    107    149    163    176    266    185    272    391    178     82    104     68     77     79    150    101    361    391    864    678    576   1014   1149    885    739    670   1055   1154    853   1218   2607   1570   1583    912    834    935    818    674    582    678    752    716    854    873   1031   1313   1155   1065   1307   1096    915   1225    870    593   1132   1044   1162   1283   1433   1291   1550   1413    748   1293   1458   1402   1036   1514   1400   1350   1480   1732   1436   1423   1499   1201   1244   1259   1669   1614   1576   1423   1302   1314   1452   1419   1289   1293   1212   1166   1209   1241   1246   1174   1154   1097   1342   1600   1443   1132   1190    998   1654
-2476  -2242  -2707  -2940  -2894  -2686  -2728  -2727  -2775  -2841  -2741  -2494  -2343  -2251  -2371  -2750  -2772  -2811  -2873  -2856  -2854  -2849  -2738  -2488  -2632  -2845  -2890  -2926  -2901  -2881  -2667  -2660  -2903  -2939  -2909  -2922  -2889  -2844  -2871  -2935  -2970  -2924  -2929  -2906  -2894  -2904  -2902  -2904  -2904  -2907  -2891  -2882  -2877  -2868  -2881  -2877  -2875  -2873  -2884  -2890  -2908  -2893  -2890  -2892  -2877  -2878  -2879  -2879  -2876  -2894  -2838  -2237  -1471   -896  -1195   -938   -774   -499   -340   -317   -302   -174   -145    -91    -55    -80    -75    -58    -47     -1     64     25    192    148    233    274    244    257    301    157    185    117     62     66     74     81     88     98    111    205    332    591    650   1223    639    618   1143   1098   1253   1153   1174    875   1559   1872   1575   1121    926   1088    769    731    784    752    771    745    820   1054    974   1139   1309   1207   1057   1430   1534   1359   1123    997    926    819   1062   1420   1430   1299   1201   1363   1281    949    876   1572   1659   1253   1426   1331   1328   1447   1744   1706   1632   1442   1644   1707   1602   1458   1264   1341   1487   1684   1360   1451   1505   1544   1615   1561   1438   1521   1628   1645   1584   1104    860   1125   1480   1823   1517    760   1270   1785
-2583  -2598  -2664  -2780  -2564  -2617  -2607  -2706  -2721  -2778  -2816  -2788  -2646  -2761  -2813  -2836  -2830  -2771  -2852  -2825  -2827  -2816  -2794  -2525  -2613  -2849  -2847  -2846  -2859  -2886  -2742  -2724  -2858  -2851  -2886  -2915  -2888  -2874  -2880  -2916  -3083  -2949  -2916  -2912  -2898  -2911  -2911  -2908  -2909  -2910  -2899  -2891  -2887  -2891  -2886  -2893  -2881  -2870  -2891  -2904  -2922  -2921  -2909  -2905  -2890  -2895  -2896  -2901  -2897  -2910  -2908  -2068   -989  -1038  -1258   -845   -572   -325   -408   -379   -298   -168   -121    -81    -50    -83    -75    -57    -42     33     96    212    260    329    180    154    319    460    366    119     86     71     71     72     80     90    103    215    183    277    477    709    785    583   1072    711   1073   1097    934   1110   1049   1562   1504   1647   1202    975   1424   1108    932    893    810    693    806    838    937   1053   1145   1378   1518   1515   1421   1390   1655   1225   1335   1124   1261   1127   1085   1446   1257   1226   1206   1234    952   1044   1055   1138   1216   1478   1501   1395   1697   1759   1308   1300   1444   1585   1491   1480   1532   1620   1536   1581   1568   1515   1406   1278   1275   1412   1310   1388   1397   1462   1380   1353   1244   1518   1332    925   1163   1410    948    873   1514   1597
-2313  -2484  -2512  -2522  -2385  -2497  -2544  -2656  -2787  -2837  -2825  -2712  -2210  -1990  -2594  -2823  -2860  -2859  -2879  -2852  -2811  -2829  -2852  -2826  -2772  -2857  -2847  -2842  -2894  -2888  -2837  -2826  -2843  -2842  -2863  -2939  -2877  -2884  -2918  -2910  -2922  -3088  -2913  -2894  -2899  -2900  -2910  -2912  -2909  -2915  -2905  -2904  -2906  -2898  -2888  -2904  -2898  -2918  -2921  -2918  -2923  -2923  -2926  -2914  -2907  -2912  -2915  -2917  -2915  -2921  -2894  -1923  -1351  -1322   -996   -895   -502   -376   -304   -155   -148   -128    -94    -76    -67    -69    -72    -56    -41     59    165    265    412    394    546    457    418    545    216    139     88     76     76     76     78     84    217    200    142    200    395    700    414    407    620    808   1219   1230    985   1352   1137   1457   1719   1501   1057    920   1408   1168   1189    869    766    859    922    943    980   1056   1174   1345   1151   1278   1383   1320   1328   1520   1444   1645   1811   1867   1574   1723   1631   1683   1410   1140   1188   1084    916    731    755    947   1027   1073   1117   1267   1312   1190   1287   1223   1162   1135   1158   1351   1675   1767   1788   1788   1407   1198   1217   1217   1227   1417   1502   1312   1224   1483   1681   1659   1057   1146    759   1401    812   1185   1328   1414
-2976  -2399  -2463  -2348  -2353  -2550  -2548  -2718  -2756  -2679  -2615  -2700  -2372  -2240  -2494  -2455  -2830  -2829  -2877  -2858  -2722  -2786  -2833  -2852  -2852  -2880  -2899  -2895  -2886  -2878  -2848  -2838  -2847  -2844  -2904  -2956  -2904  -2918  -2905  -2889  -2888  -2990  -2974  -2837  -2749  -2898  -2940  -2966  -3001  -2946  -2920  -2917  -2928  -2908  -2908  -2928  -2925  -2907  -2919  -2928  -2939  -2966  -2931  -2924  -2929  -2929  -2932  -2939  -2934  -2944  -2909  -2075  -1404  -1201   -915   -672   -544   -496   -261   -143   -118   -104    -96    -86    -81    -73    -68    -54    -39     53    155    110    131    330    263    449    270    287    455    196    107     79     80     82     84     97    184    515    384    169    219    286    335    389    490    515    618   1044   1373   1209    995   1427   1516   1320   1160   1108   1150   1086    933    841    831    829    845   1154    952   1057    970   1071   1080   1203   1168   1524   1401   1309   1384   1755   1424   1433   1544   1631   1636   1667   1762   1804   1827   1476   1609    923   1571   1366   1114   1039    930    973   1005   1068   1076   1119   1267   1204   1247   1260   1532   2006   1851   1444   1402   1333   1268   1508   1635   1434   1215   1147   1116   1212   1312   1489   1260   1379    961   1103   1322   1055   1209   1195
-3975  -4044  -3471  -2957  -2824  -2712  -2597  -2500  -2423  -2471  -2539  -2547  -2640  -2465  -2252  -2369  -2793  -2820  -2840  -2858  -2765  -2808  -2803  -2828  -2848  -2836  -2841  -2888  -2936  -2937  -2869  -2825  -2836  -2858  -2938  -2930  -2917  -2901  -2894  -2894  -2911  -2947  -2958  -2929  -2906  -2921  -2930  -2886  -2909  -2930  -2932  -2934  -2936  -2921  -2920  -2904  -2906  -2910  -2927  -2937  -2945  -2997  -2942  -2936  -2944  -2946  -2950  -2951  -2952  -2962  -2946  -2363  -1741  -1159   -949   -677   -605   -512   -159   -112   -101    -93    -94    -93    -86    -78    -68    -54    -35    198    231    214    251    153    327    192    204    364    341    146     97     83     87     88     91    221    289    327    286    278    599    583    767    918    887    799   1256   1233   1211   1246    851   1184   1660   1552   1312   1086    995    973    943    928    849    830    873    897    860    898    884    887    937   1052   1006   1165   1187   1346   1698   1847   1462   1376   1396   1409   1520   1544   1690   1619   1887   1608   1171   1175   1403   1568   1720   1833   1907   1643   1290   1462   1470   2176   2094   1889   1698   1712   1747   2220   1987   2175   1941   1763   1518   1377   1228   1149   1128   1202   1217   1118   1023   1159   1249   1142   1061    796    791    984    750    897
-2085  -2023  -2467  -2845  -3023  -3449  -3082  -2903  -2679  -2361  -2452  -2456  -2359  -2403  -2357  -2557  -2827  -2880  -2865  -2845  -2764  -2643  -2657  -2804  -2787  -2820  -2823  -2852  -2937  -2945  -2881  -2825  -2856  -2917  -2946  -2907  -2907  -2906  -2918  -2906  -2932  -2893  -2887  -2880  -2889  -2925  -2901  -2844  -2891  -2923  -2955  -2944  -2939  -2948  -2943  -2926  -2928  -2933  -2942  -2948  -2965  -2998  -2960  -2955  -2958  -2964  -2969  -2969  -2971  -2982  -2971  -2468  -1782  -1256   -917   -679   -380   -141   -130   -107    -88   -105   -100    -99    -91    -81    -72    -55    -27    267    394    242    276    169    184    351    653    515    492    234    254     92     92     95     99    124    758    414    307    375    722    543    627    995    909   1247   1093    749   1385    823    895   1412   1594   1603   1818   1274   1083    997    949    943    972    912    915    923    924    934   1038    920    986   1160   1286   1282   1344   1591   1602   1581   1513   1526   1431   1341   1352   1343   1333   1343   1424   1419   1303   1200   1228   1295   1427   1409   1512   1519   1524   1520   1321   1579   1925   1958   2165   2026   1717   2142   1590   1851   1865   1693   1763   1635   1279   1395   1287   1199   1212   1248   1117    893   1061   1056    989    759    695    671    642    657
-2695  -2224  -1956  -2113  -2585  -3047  -3319  -3303  -2963  -2529  -2335  -2308  -2356  -2363  -2321  -2416  -2644  -2788  -2758  -2748  -2742  -2567  -2590  -2636  -2814  -2829  -2830  -2826  -2898  -2912  -2882  -2902  -2889  -2920  -2931  -2915  -2907  -2902  -2898  -2898  -2914  -2887  -2963  -2920  -2907  -2933  -2898  -2891  -2920  -2929  -3118  -2954  -2960  -2959  -2956  -2952  -2947  -2958  -2958  -2970  -2965  -2999  -2976  -2974  -2975  -2982  -2985  -2987  -2994  -2999  -2985  -2257  -1632  -1401  -1235   -420   -151   -125    -88    -99   -116   -109   -105   -100    -90    -84    -73    -54    -22    311    344    403    266    357    258    401    416    254    309    307    147     99    101    103    110    617    411    390    278    402    614    970    752    618    800    758    556    978   1190    860   1037   1397   1542   1960   1759   1477   1275   1147   1022    987    976    963    967    958    962   1232   1180   1030   1153   1265   1225   1282   1174   1239   1225   1335   1532   1458   1312   1234   1147   1201   1173   1210   1250   1341   1471   1160   1332   1422   1559   1768   1625   1481   1441   1455   1520   1558   1633   1646   1599   1619   1736   2096   1697   1750   1703   1453   1638   1712   1629   1347   1320   1572   1633   1338   1243    896    771    862    814    865    937    857    800    664
-3216  -3232  -3099  -2949  -2638  -2675  -2737  -2616  -2949  -2690  -2607  -2412  -2323  -2349  -2371  -2343  -2397  -2490  -2486  -2533  -2430  -2433  -2527  -2629  -2768  -2819  -2796  -2761  -2870  -2927  -2922  -2636  -2867  -2940  -2927  -2899  -2981  -3029  -2972  -2900  -2952  -2938  -3033  -3070  -2976  -3029  -2998  -2965  -2941  -2938  -2936  -2952  -2967  -2971  -2974  -2960  -2961  -2966  -2975  -2984  -2974  -2981  -3013  -3000  -2989  -2996  -3000  -3001  -3013  -3007  -3005  -2326  -1660  -1584  -1248   -524   -179   -115    -93   -110   -122   -120   -117   -112   -103    -86    -73    -53     -5    219    458    174    210    245    211    452    224    370    239    224    167    110    108    114    121    425    223    389    463    751    510    305    326    498    572    695    833   1020   1173   1041    968   1455   1888   2204   1935   1837   1736   1342   1125   1080    996   1016   1012   1004   1000   1046   1071   1091   1071   1016   1076   1314   1284   1080   1061   1079   1172   1204   1097   1221   1222   1157   1180   1330   1315   1574   1665   1493   1443   1555   1667   1630   1756   1658   1511   1442   1519   1530   1639   1642   1705   1543   1739   1689   1613   1454   1650   1490   1666   1635   1420   1259   1165   1312   1344   1613   1579   1102    844    748    738    752    764    880    852    728
-3273  -3246  -3262  -3236  -2837  -3022  -2925  -2693  -2590  -2444  -2409  -2614  -2638  -2212  -2032  -2211  -2157  -2183  -2246  -2303  -2470  -2463  -2521  -2536  -2742  -2806  -2789  -2772  -2910  -2935  -2898  -2747  -2947  -2951  -2931  -2912  -2948  -2945  -2898  -2820  -2818  -2829  -2946  -3034  -2914  -2936  -2936  -2930  -2927  -2933  -2953  -2970  -2981  -2989  -2987  -2999  -2974  -2979  -2989  -2988  -2981  -2988  -2994  -3007  -3031  -3008  -3014  -3019  -3017  -3014  -2874  -1880  -1914  -1487  -1324   -765   -226    -96   -105   -116   -123   -131   -128   -121   -112    -94    -74    -53     -2     71    178    187    207    250    388    497    375    229    223    154    119    113    115    124    131    140    154    176    184    483    906    936    798    804    627    626   1056   1186   1493   1510   1198   1269   1723   1970   1941   2258   1998   1766   1380   1178   1168   1090   1069   1032   1033   1029   1048   1104   1187   1109   1249   1597   1419   1534   1513   1536   1512   1392   1183   1240   1328   1426   1273   1239   1361   1411   1517   1502   1464   1308   1471   1534   1792   1682   1676   1515   1458   1583   1892   1574   1655   1637   1640   1846   1704   1580   1436   1559   1523   1326   1243   1184   1133   1157   1087   1192   1225   1088   1014    854    773    721    921    869    751    685
-3256  -3115  -3190  -3223  -3260  -3246  -3216  -2921  -2491  -2633  -3113  -2870  -2727  -2783  -2860  -2215  -2032  -2097  -2184  -2130  -2472  -2500  -2449  -2693  -2811  -2815  -2800  -2930  -2942  -2891  -2767  -2767  -2956  -2929  -2920  -2951  -2979  -2922  -2906  -2916  -2876  -2816  -2772  -2964  -2897  -2917  -2924  -2928  -2930  -2931  -2942  -2958  -2972  -2977  -2981  -2995  -2997  -2988  -3002  -2991  -2994  -2998  -2999  -3009  -3025  -3043  -3034  -3030  -3024  -3005  -2972  -2354  -1720  -1473  -1380   -939   -181    -87   -112   -125   -138   -151   -140   -124   -119   -104    -80    -52      0     33     30    180    215    226    219    154    211    349    300    199    213    156    160    256    239    145    160    301    406    559    482    645    685    640    834    879   1260   1063   1301   1287   1438   1492   1548   1587   1684   1975   1897   1704   1427   1226   1184   1165   1153   1119   1085   1071   1111   1243   1352   1253   1219   1407   1478   1496   1538   1541   1413   1373   1309   1457   1395   1457   1348   1479   1585   1535   1616   1690   1573   1467   1374   1443   1830   1701   1711   1485   1388   1553   1637   1409   1472   1531   1429   1583   1709   1491   1253   1301   1419   1352   1520   1262   1078   1030    973    945    997    915    884    825    798    754    684    671    668    663
-3238  -3232  -3167  -3015  -3019  -3224  -3257  -3238  -3265  -3229  -3196  -3117  -2840  -2855  -2639  -2740  -2584  -2502  -2200  -2475  -2404  -2461  -2611  -2718  -2748  -2817  -2760  -2939  -2913  -2754  -2534  -2833  -2954  -2822  -2937  -2948  -2941  -2945  -2944  -2954  -2910  -2879  -2877  -2785  -2882  -2957  -2979  -3035  -2997  -3139  -3126  -3294  -3298  -3089  -3135  -2967  -2937  -2988  -2966  -2982  -3013  -3009  -3012  -3012  -3024  -3040  -3047  -3047  -3049  -3053  -2827  -1814  -1593  -1599  -1276   -611   -315   -147   -139   -158   -198   -190   -141   -123   -116   -112    -86    -47     18     84     -3    212    323    478    524    353    227    293    245    289    370    187    254    239    169    164    212    221    286    342    486    786    882    651   1210   1007   1093   1312   1400   1112   1313   1545   1733   1562   1610   1817   1561   1620   1377   1292   1331   1342   1339   1296   1386   1255   1305   1464   1425   1370   1319   1222   1337   1493   1425   1434   1335   1487   1324   1366   1368   1381   1388   1454   1490   1698   1687   1862   1853   1809   1756   1568   1584   1751   1599   1652   1391   1611   1830   1593   1272   1232   1373   1454   1503   1333   1439   1373   1091   1336   1606   1424   1199   1086   1022    877   1030    931    888    716    702    697    805    851    796    663
-3225  -3210  -3232  -3161  -3083  -3116  -3165  -3163  -3182  -3185  -3152  -3160  -2991  -2801  -2553  -3075  -3009  -3084  -3236  -3141  -3155  -2861  -2884  -2867  -2807  -2770  -2915  -2978  -2678  -2492  -2560  -2870  -2944  -2686  -2921  -2964  -2934  -2919  -2962  -2943  -2918  -2923  -3014  -3089  -2979  -2964  -2946  -2941  -2947  -2943  -2862  -2909  -3022  -2980  -3187  -2959  -2939  -2466  -2877  -2982  -3025  -3020  -3014  -3028  -3037  -3045  -3050  -3052  -3055  -3058  -2369  -1871  -1677  -1498  -1133  -1084   -566   -334   -284   -285   -289   -231   -154   -129   -115   -112    -89    -40     69     59      4    204    214    273    242    277    321    291    320    305    315    311    314    450    217    424    610    504    337    552    297    572    810   1067    644   1055   1163    870    940   1000   1770   1673   1547   1436   1452   1551   1394   1352   1275   1367   1478   1611   1629   1433   1349   1308   1309   1328   1316   1344   1361   1382   1398   1397   1410   1463   1448   1421   1386   1268   1338   1451   1438   1531   1648   1612   1659   1773   1665   1635   1561   1488   1379   1407   1450   1532   1493   1646   1618   1753   1350   1157   1137   1194   1388   1114   1233   1263   1308   1633   1634   1712   1411   1267   1157    852    765    803    842    768    803    858    899    790    726    664
-3271  -3246  -3208  -3189  -3183  -3177  -3174  -3132  -3200  -3147  -3163  -3146  -3114  -2988  -2902  -2995  -3047  -3008  -2902  -3223  -3421  -3002  -2620  -2884  -2827  -2940  -2973  -2928  -2776  -2722  -2535  -2977  -2986  -2708  -2858  -3007  -2996  -2972  -3004  -2986  -2985  -2949  -2973  -2979  -2931  -2933  -2812  -2926  -3021  -2987  -2849  -2811  -2875  -2922  -2943  -2992  -3015  -3012  -2977  -3021  -3029  -3033  -3025  -3032  -3045  -3051  -3053  -3055  -3061  -2949  -2362  -1857  -1589  -1403  -1369  -1258   -853   -493   -469   -477   -389   -257   -166   -128   -113   -106    -89    -28      1     86    176    -17    187    138    180    276    334    279    304    372    330    339    296    374    213    246    425    659    837    958   1114    618    567    689    769    724    845   1107   1315   1400   1655   1655   1484   1357   1401   1521   1311   1289   1276   1372   1510   1801   1820   1666   1512   1422   1766   1625   1428   1373   1380   1425   1428   1420   1433   1480   1681   1466   1360   1265   1298   1442   1506   1626   1602   1527   1550   1590   1520   1526   1431   1464   1393   1536   1555   1611   1684   1909   1704   1634   1508   1272   1356   1175   1100   1077   1353   1217   1148   1329   1065    881    921   1211   1098    856    824   1045    995    845   1103    963    826    695    674    670
-3395  -3250  -3216  -3231  -3245  -3223  -3200  -3207  -3194  -3154  -3141  -3142  -3120  -3096  -3135  -3104  -3047  -3104  -3119  -3216  -3308  -3195  -2639  -2790  -2463  -2619  -2858  -3008  -2952  -2980  -3003  -3034  -2945  -2399  -2602  -2874  -2851  -2987  -2954  -2924  -3023  -3077  -2986  -2968  -2954  -2856  -2421  -2539  -2946  -2953  -2989  -2977  -2984  -2998  -2999  -3011  -3035  -3022  -3020  -3048  -3035  -3038  -3036  -3039  -3050  -3054  -3058  -3059  -3063  -2887  -2228  -1768  -1587  -1508  -1376  -1365  -1003   -770   -617   -506   -409   -262   -175   -124   -115   -106    -90    -13      1     48     75    267    233    409    332    345    350    375    388    359    291    252    175    357    293    387    434    354    950    841    603   1066    771    529    595    901   1447   1061   1723   1670   1769   1707   1494   1433   1347   1320   1352   1297   1288   1372   1696   2006   1971   1835   1630   1494   1484   1491   1483   1462   1477   1446   1426   1408   1357   1350   1545   1652   1367   1274   1270   1381   1593   1596   1511   1457   1403   1481   1583   1692   1506   1515   1453   1556   1503   1504   1614   1696   1540   1560   1432   1408   1399   1115   1258   1135   1368   1405    994    963   1190   1394   1545   1392    993   1080   1170   1296   1115   1083   1010    956    797    794    673    718
-3546  -3363  -3325  -3335  -3306  -3223  -3190  -3216  -3229  -3192  -3213  -3216  -3185  -3185  -3241  -3115  -2623  -3167  -3141  -3329  -3191  -3072  -2969  -3116  -3082  -2990  -2935  -3068  -3040  -3187  -3180  -3207  -3150  -2683  -2658  -2816  -2403  -2772  -2941  -2917  -2914  -3083  -3035  -2943  -2939  -2921  -2631  -2869  -2904  -2970  -3003  -2996  -2997  -2986  -3004  -3026  -3035  -3031  -3056  -3048  -3042  -3044  -3044  -3046  -3053  -3057  -3060  -3063  -3063  -2819  -2064  -1764  -1584  -1466  -1316   -932  -1007   -890   -669   -551   -417   -262   -180   -131   -115   -107    -86      1     67    125     -2    200    228     19     26    160    170    220    189     94    207    304    220    641    365    737    427    808    492    627    991   1314   1115    769    712    731   1146   1265   1731   1799   1701   1605   1426   1332   1323   1327   1304   1294   1302   1402   1587   1889   1966   1800   1613   1766   1529   1573   1504   1487   1484   1483   1461   1448   1446   1361   1349   1347   1334   1274   1287   1298   1435   1576   1459   1397   1627   1636   1502   1551   1619   1567   1550   1372   1346   1326   1375   1329   1390   1345   1328   1422   1483   1208   1191   1160   1130   1333   1202   1026   1374   1538   1572   1378   1113   1313   1392   1508   1294   1032   1293    828    947    967    684    678
-3367  -3358  -3388  -3355  -3285  -3249  -3265  -3282  -3323  -3282  -3338  -3318  -3289  -3274  -3350  -3243  -3171  -3226  -3330  -3191  -3195  -3225  -3135  -2938  -2704  -2681  -2698  -2964  -3063  -3040  -2990  -3007  -3049  -3141  -3165  -3193  -2961  -2995  -2847  -2891  -2866  -2869  -3089  -3047  -2918  -2915  -2943  -2949  -2962  -2985  -2988  -2968  -2974  -2982  -3012  -3041  -3038  -3047  -3050  -3048  -3043  -3048  -3049  -3053  -3056  -3059  -3064  -3063  -3059  -2879  -2303  -1909  -1664  -1438   -970  -1026   -796   -694   -701   -567   -412   -253   -171   -136   -120   -103    -76     37     50     87    302    420    428    320    211    246     84    153    244    355    201    124    174    428    340    650    756    531    877    878   1370   1461   1334    645    993   1499   1338   1686   1414   1475   1773   1769   1343   1508   1450   1315   1310   1301   1323   1437   1514   1672   1706   1646   1533   1532   1602   1619   1596   1533   1503   1509   1531   1552   1543   1466   1351   1356   1379   1382   1348   1385   1505   1489   1370   1320   1316   1301   1398   1477   1548   1582   1432   1410   1284   1264   1259   1257   1255   1256   1257   1300   1460   1386   1627   1527   1077   1130   1300   1353   1427   1355   1282   1325   1418   1369   1383   1329   1208    949    877   1112   1286    887    770    709
-3406  -3275  -3280  -3363  -3276  -3334  -3370  -3294  -3327  -3281  -3285  -3250  -3251  -3233  -3233  -3210  -2970  -3085  -3219  -3170  -3182  -3230  -3242  -3293  -3303  -3192  -3094  -2795  -2646  -2519  -2672  -2865  -2913  -2973  -2991  -2974  -3013  -3086  -3119  -3078  -2867  -2512  -3165  -3062  -2616  -2672  -2842  -2906  -2872  -2905  -2986  -2929  -2936  -2989  -3014  -3038  -3039  -3053  -3048  -3049  -3048  -3051  -3052  -3055  -3058  -3061  -3066  -3064  -3062  -3038  -2378  -1758  -1488  -1419  -1157  -1130   -788   -672   -636   -549   -409   -236   -160   -125   -111    -94    -26     79    103    111    391    473    372    266    464    523    189    130    435    475    272    313    350    663    699    966    999    899    938    882   1001    858    995    745   1170   1190   1118   1734   2266   1808   1682   1474   1449   1527   1591   1331   1325   1312   1317   1421   1515   1548   1561   1624   1443   1410   1450   1523   1594   1431   1418   1457   1488   1499   1524   1492   1483   1404   1414   1634   1664   1504   1444   1373   1346   1385   1315   1318   1287   1341   1380   1349   1339   1381   1258   1259   1258   1256   1253   1253   1258   1260   1560   1633   1623   1515   1268   1192   1296   1354   1366   1449   1341   1331   1321   1310   1252   1166   1008   1069    935   1360   1303    859    868    879
-3325  -3323  -3352  -3374  -3293  -3244  -3254  -3290  -3271  -3249  -3271  -3242  -3245  -3233  -3222  -3197  -2814  -2993  -3203  -3181  -3191  -3211  -3238  -3250  -3274  -3270  -3352  -3256  -3276  -3229  -3008  -2737  -2653  -2677  -2568  -2731  -2847  -2967  -3034  -3026  -3085  -3058  -3168  -2891  -2348  -2654  -2802  -2866  -2900  -2925  -2957  -2930  -2945  -2984  -3009  -3027  -3048  -3042  -3043  -3050  -3051  -3052  -3055  -3059  -3060  -3064  -3066  -3068  -3066  -3057  -2309  -1884  -1630  -1316  -1141  -1148   -790   -646   -549   -516   -340   -206   -132   -112   -100    -71      1     20    189    200    246    303    427    450    346    355    281    142    266    233    199    220    186    291    370    650    954    744    964    832    832    662   1207   1268   1175   1176   1289   1344   1728   1670   1480   1435   1848   1391   1378   1525   1342   1330   1376   1438   1456   1449   1458   1411   1363   1352   1373   1445   1413   1489   1343   1344   1362   1423   1447   1431   1424   1432   1441   1392   1420   1469   1427   1397   1469   1381   1372   1341   1280   1296   1349   1399   1374   1343   1289   1253   1252   1252   1252   1254   1253   1259   1581   1566   1455   1249   1124   1053   1319   1461   1419   1666   1473   1312   1287   1377   1254   1287   1160   1057    825   1217   1229   1107   1311   1308
-3320  -3305  -3340  -3361  -3299  -3261  -3261  -3282  -3259  -3221  -3260  -3269  -3246  -3231  -3218  -3207  -3195  -3198  -3219  -3210  -3162  -3183  -3174  -3092  -3124  -3144  -3224  -3308  -3121  -3184  -3198  -3240  -3043  -3034  -2713  -2417  -2353  -2502  -2772  -3056  -3033  -3008  -2954  -2924  -2951  -2847  -2922  -2921  -2921  -2929  -2938  -2947  -2954  -2972  -2997  -2957  -3001  -3023  -3039  -3048  -3051  -3053  -3056  -3060  -3062  -3065  -3067  -3072  -3069  -3070  -2197  -1913  -1597  -1568  -1061   -910   -725   -617   -555   -493   -250   -162   -118   -104    -73    -20      2      0    174     66    356    359    483    545    595    602    251    157    572    178    213    185    315    362    662   1025    469    577    924    992    704    671   1317   1560   1735   1137   1620   1742   1717   2073   1758   1499   1504   1420   1381   1354   1570   1592   1663   1618   1531   1466   1406   1351   1323   1323   1346   1366   1371   1441   1369   1326   1324   1326   1345   1398   1396   1432   1451   1455   1441   1513   1498   1429   1380   1358   1345   1310   1273   1292   1299   1318   1350   1334   1353   1252   1246   1246   1249   1247   1249   1257   1293   1311   1257   1157   1133   1348   1430   1467   1497   1548   1490   1378   1308   1401   1356   1432   1070   1046    878    948   1196   1199   1441   1277
-3303  -3219  -3332  -3300  -3293  -3295  -3291  -3280  -3267  -3291  -3265  -3255  -3238  -3230  -3221  -3209  -3217  -3225  -3176  -2902  -3047  -3146  -3057  -2830  -2800  -2910  -3091  -2997  -2927  -3060  -2860  -2556  -2492  -2811  -2756  -2544  -2647  -2876  -3000  -2745  -2760  -2727  -2832  -2836  -2844  -2970  -2935  -2933  -2934  -2941  -2945  -2945  -2955  -2952  -2916  -2907  -2975  -3019  -3031  -3046  -3051  -3053  -3056  -3059  -3062  -3065  -3068  -3073  -3073  -3070  -2411  -2082  -1835  -1570  -1088   -859   -690   -639   -617   -472   -241   -152   -106    -86    -22     33     73     21     73    170    298    353    408    310    417    351    411    299    192    286    166    283    301    339    419    335    617    995    559    679    998   1093   1024   1227   1454   1166   1294   1371   1615   1501   1695   1762   1482   1415   1428   1732   1721   1681   1723   1765   1869   1705   1458   1353   1324   1312   1315   1326   1337   1377   1360   1326   1314   1310   1313   1345   1459   1472   1420   1405   1579   1717   1761   1428   1468   1359   1305   1308   1282   1264   1258   1299   1263   1272   1257   1250   1248   1247   1247   1247   1247   1289   1375   1431   1177   1169   1280   1442   1517   1702   1390   1389   1365   1377   1392   1479   1354   1397    834    938    905   1266   1366   1235   1201   1243
-3304  -3292  -3330  -3261  -3289  -3307  -3304  -3328  -3174  -3306  -3271  -3258  -3247  -3241  -3199  -3227  -3245  -3249  -3175  -3232  -3196  -3122  -2964  -2828  -2828  -2821  -2986  -2934  -3163  -3173  -3138  -2674  -2543  -3170  -3201  -2887  -3030  -2614  -2823  -3083  -3271  -3300  -2895  -3429  -3139  -2930  -2787  -2928  -2924  -2914  -2944  -2947  -2960  -2972  -2978  -2967  -3005  -3011  -3030  -3045  -3052  -3052  -3056  -3060  -3063  -3067  -3068  -3074  -3075  -3073  -2948  -2304  -1819  -1326  -1145  -1013   -736   -466   -469   -357   -177   -128    -90    -59    -11     83     78     72    103    162    196    269    446    353    339    647    750    509    190    153    362    242    243    355    315    737    899    930   1287   1218    867    864    818    856    953   1268   1286   1360   1444   1832   1869   1926   1703   1457   1671   1714   1656   1684   1584   1711   1984   1739   1472   1413   1341   1386   1316   1315   1315   1318   1315   1310   1312   1312   1310   1316   1406   1477   1443   1420   1406   1501   1466   1434   1379   1360   1383   1327   1298   1262   1295   1255   1248   1246   1248   1247   1274   1250   1249   1257   1277   1253   1368   1411   1383   1292   1408   1439   1534   1546   1565   1256   1236   1258   1520   1421   1361   1275   1033   1153   1125   1404   1562   1394   1270   1283
-3303  -3290  -3286  -3339  -3343  -3308  -3293  -3316  -3147  -3284  -3269  -3259  -3246  -3248  -3226  -3250  -3253  -3254  -3241  -3270  -3255  -3143  -3116  -3074  -2930  -2822  -3182  -3413  -3682  -3545  -3427  -3275  -3119  -3935  -3971  -2984  -2476  -2627  -2786  -2922  -3023  -3314  -3424  -3815  -4377  -4162  -3891  -2857  -2987  -2956  -2933  -2946  -2960  -2971  -2984  -2993  -3000  -3017  -3034  -3049  -3053  -3053  -3056  -3061  -3063  -3068  -3071  -3074  -3075  -3074  -3069  -2364  -1809  -1674  -1227  -1073   -743   -347   -370   -257   -156   -105    -70    -55     -1     99      3    100    186    127    150    499    609    715    761    672    621    269    286    253    248    301    336    643    653    653    792    924    771   1168   1473   1279   1211   1166   1214   1425   1583   1736   1629   2099   2017   1710   1521   1491   1561   1616   1619   1599   1547   1568   1794   1703   1558   1378   1335   1314   1423   1318   1314   1321   1350   1346   1426   1312   1312   1359   1398   1409   1434   1329   1330   1422   1504   1490   1434   1394   1475   1511   1462   1408   1348   1349   1310   1249   1246   1297   1257   1255   1282   1321   1286   1336   1303   1302   1259   1233   1348   1592   1624   1368   1232   1239   1241   1286   1317   1155    952   1011   1433   1419   1477   1641   1518   1769   1402   1460
-3317  -3295  -3283  -3327  -3399  -3315  -3315  -3324  -3201  -3282  -3261  -3347  -3357  -3333  -3293  -3290  -3350  -3345  -3309  -3318  -3335  -3313  -3252  -3276  -3109  -3112  -3424  -3660  -3726  -3419  -3041  -3317  -3450  -4114  -4048  -3009  -2614  -3255  -3156  -2855  -2864  -2907  -2981  -2826  -2988  -3916  -3845  -3298  -3583  -3476  -3193  -3057  -2923  -2945  -2967  -2985  -3012  -3033  -3045  -3059  -3055  -3056  -3057  -3061  -3063  -3067  -3069  -3073  -3075  -3077  -3074  -2847  -1858  -1682  -1417  -1013   -820   -340   -276   -229   -147   -113    -69    -33      1     21    130     39    161    146     57    484    338    534    693    694    374    410    202    156    225    311    682    498    648    807    914   1276   1052    922   1163   1042   1139   1458   1693   1630   1853   1863   1611   2240   1876   1548   1431   1415   1442   1536   1733   1560   1606   1514   1557   1551   1459   1380   1329   1317   1317   1328   1387   1507   1550   1634   1573   1394   1354   1395   1398   1434   1465   1387   1318   1428   1547   1510   1406   1492   1511   1508   1426   1468   1462   1504   1419   1284   1290   1400   1266   1260   1274   1295   1285   1314   1387   1386   1467   1423   1414   1558   1392   1251   1254   1283   1276   1249   1194   1166   1288   1374   1403   1360   1377   1388   1386   1388   1447   1439
-3311  -3318  -3337  -3351  -3321  -3319  -3316  -3300  -3220  -3290  -3314  -3306  -3352  -3328  -3291  -3292  -3327  -3314  -3311  -3297  -3290  -3285  -3243  -3252  -3181  -3209  -3372  -3012  -2861  -2967  -2807  -2738  -3187  -3614  -3674  -3201  -3112  -3239  -3022  -2825  -2919  -2853  -2811  -2766  -2766  -2882  -2975  -3099  -3198  -3498  -3327  -3323  -3183  -2597  -2881  -2905  -2984  -3012  -3018  -3025  -3058  -3058  -3058  -3061  -3063  -3066  -3069  -3074  -3075  -3077  -3077  -3074  -2188  -1811  -1584  -1044   -752   -291   -191   -186   -152   -117    -79    -36     42     94    127     73     30    281    279    245    345    738    577    440    367    301    344    264    239    429    311    494    482    787   1079    953    832    800    623   1061   1267   1692   1805   1268   1599   1682   1917   2000   1577   1457   1415   1423   1437   1475   1440   1488   1508   1605   1636   1578   1514   1462   1403   1431   1503   1322   1587   1564   1585   1431   1533   1503   1557   1484   1440   1355   1381   1358   1307   1370   1549   1433   1379   1554   1547   1505   1438   1506   1517   1500   1515   1562   1425   1438   1441   1268   1265   1308   1458   1321   1418   1589   1606   1551   1525   1348   1335   1305   1307   1302   1279   1172   1135   1119   1230   1359   1345   1343   1344   1375   1413   1419   1404   1640
-3311  -3341  -3437  -3426  -3325  -3329  -3334  -3292  -3297  -3365  -3315  -3266  -3322  -3279  -3284  -3292  -3313  -3288  -3279  -3320  -3287  -3219  -3310  -3304  -3276  -3232  -3111  -2984  -2944  -2823  -3003  -3018  -3186  -3171  -3060  -3100  -3116  -3062  -2818  -2711  -2818  -2843  -2762  -2709  -2704  -2792  -2758  -2891  -2954  -2731  -3147  -3464  -2479  -2485  -2747  -2733  -2899  -2619  -2898  -2924  -3056  -3061  -3061  -3062  -3063  -3066  -3069  -3074  -3076  -3077  -3078  -3077  -2083  -1939  -1601  -1170   -540   -269   -125   -160   -128   -102    -71     -5    123    241    239    154    109    258    114    416    281    848    399    503    541    456    636    679    317    347    471    411    522    598    836    636    989    905    733    893   1078   1558   1158   1439   1672   1853   1996   1896   1667   1511   1415   1405   1402   1379   1381   1399   1445   1697   1907   1880   1705   1500   1596   1750   1683   1847   1848   1294   1290   1319   1553   1544   1585   1516   1411   1339   1337   1306   1312   1569   1563   1479   1396   1649   1608   1454   1637   1584   1547   1525   1540   1537   1506   1487   1585   1293   1340   1353   1301   1507   1573   1734   1820   1803   1322   1275   1349   1368   1292   1269   1208   1156   1057   1156   1259   1319   1361   1360   1305   1356   1391   1329   1384   1587
-3396  -3451  -3432  -3338  -3334  -3331  -3334  -3322  -3340  -3340  -3337  -3270  -3354  -3352  -3294  -3327  -3349  -3291  -3286  -3303  -3275  -3148  -3276  -3375  -3374  -3270  -3187  -2874  -2997  -2981  -2936  -3019  -3080  -2900  -2976  -3049  -3117  -2998  -2832  -2755  -2906  -2970  -2867  -2826  -2708  -2733  -2724  -2707  -2693  -2651  -3220  -3401  -3111  -2456  -2590  -2497  -2690  -2729  -2781  -2780  -2811  -3061  -3065  -3063  -3065  -3067  -3067  -3072  -3076  -3077  -3080  -3068  -2774  -1887  -1469  -1083   -518   -183   -169   -146   -104    -77    -42      7    312    217    421    217    183    405    197    344    857    406    452    491    699    611    521    226    279    249    430    361    392    481    516    849    867   1032   1015   1417   1320   1158   1134   1436   1608   1919   1883   1900   2101   1612   1398   1387   1377   1375   1384   1464   1425   1995   2255   1986   1763   1554   1532   1759   1836   1987   1298   1264   1280   1434   1497   1597   1514   1526   1439   1454   1372   1348   1437   1919   1536   1504   1546   1647   1511   1602   1578   1599   1554   1548   1539   1491   1506   1607   1616   1268   1364   1521   1562   1510   1802   1870   1996   1247   1256   1538   1726   1515   1343   1276   1237   1193   1150   1182   1194   1192   1245   1311   1295   1298   1336   1393   1356   1377
-3373  -3357  -3349  -3342  -3323  -3325  -3345  -3341  -3282  -3331  -3314  -3263  -3299  -3305  -3305  -3322  -3311  -3299  -3303  -3300  -3289  -3250  -3350  -3363  -3358  -3348  -3043  -2171  -2460  -2947  -2967  -3080  -2991  -2842  -2984  -2982  -2986  -2871  -2865  -2722  -3011  -3059  -2899  -2925  -2673  -2666  -2624  -2579  -2516  -2839  -3332  -2898  -2460  -2750  -2700  -2591  -2641  -2678  -2752  -2720  -2772  -2841  -2894  -3066  -3069  -3071  -3070  -3072  -3075  -3078  -3082  -3081  -2406  -1931  -1517  -1198   -587   -309   -238   -145    -88    -40      8     81    594    687    545    275    518    185    603    924   1060    804    744    932    594    628    811    745    635    580    852    892    710    903    617    585   1339   1185   1251   1373   1020    957   1449   1692   1695   1904   1877   1927   1732   1507   1410   1379   1373   1398   1418   1442   1415   1568   2009   1792   1692   1528   1551   1711   1847   2028   1268   1261   1276   1330   1552   1417   1496   1511   1466   1500   1424   1384   1399   1607   1568   1623   1592   1552   1504   1400   1575   1557   1457   1489   1483   1529   1477   1534   1582   1273   1459   1667   1887   1812   1925   2031   1323   1367   1332   1631   1680   1574   1328   1239   1221   1199   1076   1033   1153   1177   1265   1392   1300   1345   1389   1462   1484   1452
-3373  -3343  -3348  -3340  -3341  -3356  -3412  -3363  -3291  -3290  -3270  -3298  -3353  -3317  -3297  -3334  -3315  -3302  -3306  -3305  -3308  -3303  -3309  -3358  -3335  -3356  -3354  -3093  -2561  -2374  -2871  -3165  -2973  -2949  -3047  -3078  -2921  -2826  -2756  -2907  -3136  -2916  -2953  -2862  -2719  -2712  -2569  -2467  -2528  -2888  -2811  -2653  -2592  -2662  -2693  -2522  -2590  -2620  -2526  -2629  -2640  -2837  -2798  -2973  -3069  -3073  -3072  -3075  -3076  -3078  -3084  -3086  -2717  -2073  -1483  -1384   -611   -337   -312   -177    -96    -20     -3    149    114    240    380    213    360    630    649    757    852    975    747    582    571    809    819    729    673    652    777   1003    737    903   1113    850   1025    977    766    855   1329    879   1142   1708   1370   1764   1811   1456   1754   1611   1424   1378   1409   1434   1604   1480   1429   1621   1789   1728   1577   1520   1522   1619   1825   2053   1413   1261   1266   1318   1464   1541   1558   1507   1397   1405   1477   1532   1624   1547   1536   1537   1626   1367   1373   1368   1516   1504   1461   1421   1448   1419   1467   1535   1538   1340   1545   1804   1997   2102   2114   1728   1386   1283   1556   1740   1779   1603   1431   1358   1204   1163   1105   1119   1115   1212   1247   1316   1392   1406   1454   1522   1732   1617
-3377  -3368  -3372  -3363  -3366  -3378  -3387  -3379  -3194  -3329  -3332  -3342  -3339  -3325  -3310  -3313  -3306  -3323  -3350  -3317  -3309  -3243  -3292  -3320  -3261  -3315  -3513  -3432  -2922  -2756  -3221  -2991  -2974  -3033  -3108  -3044  -2870  -2818  -2837  -3092  -2977  -2820  -2942  -2850  -2849  -2596  -2525  -2378  -2521  -3035  -2530  -2472  -2660  -2676  -2527  -2539  -2560  -2411  -2305  -2510  -2336  -2730  -2941  -2711  -2765  -3069  -3075  -3077  -3078  -3079  -3084  -3082  -3057  -2267  -1433  -1330   -815   -539   -476   -339   -124    -80    -35     44    196    433    354    516    721    518    740    845    401    883    773   1015    806    659    617    506    744    705   1076    995   1235   1170   1094    847    971    753    890   1162    796    782    917   1142   1665   1873   1584   1310   1280   1521   1477   1654   1394   1403   1559   1510   1413   1490   1630   1593   1555   1561   1587   1649   1811   1958   1880   1315   1268   1312   1343   1330   1633   1550   1372   1306   1299   1613   1593   1460   1415   1429   1445   1363   1364   1521   1504   1488   1432   1408   1405   1397   1391   1396   1561   1639   1651   1995   2171   2459   2394   1294   1641   1310   1439   1377   1282   1241   1317   1276   1193   1180   1149   1168   1176   1219   1345   1382   1361   1466   1418   1462   1483   1689
-3385  -3383  -3382  -3379  -3375  -3369  -3372  -3366  -3145  -3333  -3323  -3322  -3319  -3310  -3314  -3332  -3331  -3310  -3302  -3320  -3260  -3285  -3302  -3323  -3246  -3216  -3372  -3372  -3187  -3120  -2862  -1903  -2423  -3074  -3140  -2930  -2843  -2845  -2925  -2953  -2791  -2838  -2888  -2853  -2884  -2602  -2492  -2419  -3058  -2733  -2406  -2529  -2665  -2597  -2554  -2551  -2474  -2334  -2288  -2441  -2291  -2545  -2853  -2892  -2872  -2948  -3054  -3079  -3079  -3079  -3086  -3084  -3052  -2133  -1508  -1183   -988   -647   -675   -344   -141   -104    -80    -39    229    636    749    494   1025    526    366    440    587   1085    346    538    870    414    411    671    755   1056    811    895    729   1063    702    743    582    564    617    930   1480    980   1172   1255   1766   1864   1993   1264   1265   1375   1358   1429   1408   1481   1452   1700   1576   1536   1538   1575   1556   1610   1617   1748   1858   1996   2040   2226   2084   1524   1369   1312   1554   1569   1298   1298   1698   1601   1427   1392   1384   1376   1364   1362   1858   1540   1513   1507   1491   1439   1404   1389   1389   1396   1685   1681   1575   1642   2066   2544   2009   1287   1333   1277   1516   1360   1299   1267   1224   1203   1197   1176   1180   1196   1217   1233   1301   1382   1463   1251   1425   1468   1521   1549
-3400  -3372  -3370  -3366  -3361  -3400  -3404  -3317  -3237  -3300  -3302  -3317  -3308  -3342  -3332  -3326  -3322  -3313  -3280  -3273  -3296  -3323  -3356  -3337  -3262  -3215  -3279  -3259  -3095  -3067  -3124  -2955  -2418  -2552  -2963  -3022  -3006  -2992  -2982  -2817  -2830  -2869  -2830  -2851  -2794  -2618  -2350  -2774  -3422  -2477  -2362  -2504  -2589  -2570  -2553  -2820  -2819  -2452  -2534  -2473  -2473  -2723  -2611  -2725  -2987  -2917  -2750  -3079  -3079  -3080  -3085  -3088  -2998  -2200  -1396  -1262  -1109   -904   -698   -351   -143   -101    -80    -57      2    244    319    406    810    187    669    935   1343   1165    809    905    585    819    663    613    755   1047    760    699    939    588    586    699    543    614    568    775   1250    962   1122   1579   1721   1855   1730   1272   1259   1268   1288   1359   1301   1340   1463   1685   1552   1492   1495   1754   1633   1601   1607   1836   2080   1910   2105   2054   1925   1546   1741   1332   1316   1378   1299   1298   1698   1617   1549   1471   1379   1364   1362   1714   1646   1561   1547   1549   1536   1461   1395   1389   1388   1389   1638   1684   1733   1739   1935   2219   1503   1223   1223   1493   1382   1277   1245   1279   1262   1213   1229   1231   1253   1221   1331   1284   1345   1429   1508   1426   1372   1484   1462   1530
-3385  -3369  -3325  -3290  -3325  -3376  -3361  -3286  -3324  -3311  -3351  -3338  -3324  -3319  -3311  -3323  -3329  -3322  -3319  -3289  -3293  -3297  -3310  -3262  -3190  -3200  -3136  -3084  -2995  -3061  -3276  -3326  -3200  -2082  -1928  -2651  -2846  -2953  -2872  -2775  -2816  -2902  -2705  -2716  -2676  -2523  -2499  -3725  -3095  -2316  -2375  -2631  -2592  -2804  -2879  -2953  -2834  -2649  -2714  -2519  -2530  -2553  -2488  -2527  -2979  -3074  -2852  -3081  -3080  -3081  -3087  -3090  -2914  -2222  -1616  -1759  -1419   -886   -456   -282   -160    -94    -59    -36      1    380    573    635    270    274    511   1051    718    984   1004    747    597    757    354    314    972   1181    434    488    719    575    471    460    444    615    955    865    822    835   1087   1417   1671   1779   1986   1260   1259   1262   1424   1550   1395   1476   1314   1355   1492   1439   1406   1418   1420   1445   1405   1626   1741   2118   2278   2034   1798   1601   1970   1543   1454   1314   1357   1891   1818   1914   1866   1659   1364   1375   2126   1753   1700   1602   1565   1538   1419   1419   1419   1403   1389   1387   1441   1832   1829   1975   2173   1419   1264   1220   1224   1472   1294   1253   1250   1304   1287   1256   1282   1393   1492   1226   1297   1400   1435   1491   1519   1507   1417   1415   1469   1528
-3390  -3373  -3335  -3357  -3372  -3368  -3286  -3229  -3345  -3331  -3326  -3324  -3295  -3263  -3279  -3300  -3350  -3327  -3320  -3320  -3300  -3284  -3246  -3175  -3168  -3217  -3148  -2994  -2966  -3050  -3183  -3268  -3183  -2934  -2534  -2342  -2743  -2564  -2356  -2620  -2737  -2862  -2585  -2624  -2660  -2739  -3475  -3546  -2396  -2383  -2579  -2719  -2620  -2705  -2782  -2901  -2756  -2740  -2724  -2571  -2615  -2431  -2429  -2546  -2970  -3076  -3077  -3079  -3082  -3083  -3087  -3091  -3085  -2480  -1964  -1862  -1586   -638   -361   -140   -104    -86    -52    -20    145    140    578    578    661    754    247    707    687    729   1170    768   1070    591    388    341    365    736    603    638    456    419    373    375    412    456    549    702   1154   1011   1112   1706   1775   1677   1407   1260   1259   1260   1406   1747   1661   1702   1417   1310   1341   1320   1314   1313   1520   1358   1346   1412   1798   2139   1902   1794   1661   1679   1660   1805   1437   1520   1329   2006   1804   1634   1645   1478   1364   1437   2216   2069   1775   1648   1531   1501   1492   1482   1473   1490   1386   1383   1387   1463   1849   2046   1781   1262   1260   1221   1296   1275   1272   1263   1274   1334   1302   1313   1413   1404   1580   1293   1412   1534   1534   1525   1520   1469   1452   1445   1480   1653
-3398  -3362  -3244  -3354  -3351  -3349  -3290  -3300  -3329  -3338  -3354  -3349  -3281  -3216  -3222  -3351  -3421  -3367  -3330  -3316  -3315  -3251  -3277  -3219  -3192  -3167  -3105  -3002  -2968  -3057  -3096  -3216  -3110  -3020  -2970  -2957  -3035  -2814  -2675  -2634  -2758  -2602  -2566  -2548  -3133  -3571  -2918  -2749  -2456  -2445  -2838  -2725  -2735  -2710  -2734  -2746  -2700  -2461  -2688  -2606  -2604  -2531  -2458  -2606  -2935  -3067  -3070  -3081  -3083  -3086  -3090  -3092  -3087  -3047  -2414  -2004  -1722  -1141   -686   -237   -120    -94    -71    -29    205    416    771    966   1106    611    333    656    336    996    665    750    732    629    424    354    398    654    706    346    473    489    369    391    496    567    703    569    783   1321   1333   1568   1606   1528   1583   1391   1283   1261   1259   1523   1711   2013   1506   1527   1521   1458   1327   1360   1535   1656   1378   1333   1456   1599   1671   1968   1690   1668   2063   1990   1763   1590   1613   2042   1755   1697   1614   1552   1362   2251   1818   1808   1759   1737   1559   1646   2067   1622   1618   1561   1543   1383   1386   1516   1544   1664   1480   1229   1227   1323   1373   1291   1292   1311   1340   1383   1451   1612   1392   1484   1485   1488   1608   1586   1581   1524   1523   1565   1501   1482   1544   1707
-3376  -3386  -3168  -3369  -3388  -3354  -3278  -3327  -3420  -3404  -3367  -3352  -3300  -3280  -3308  -3420  -3441  -3384  -3318  -3335  -3311  -3290  -3296  -3171  -3155  -3148  -3190  -3179  -3073  -2983  -2990  -3208  -3249  -3137  -2926  -2874  -2820  -2721  -2742  -2697  -2629  -2534  -2523  -2672  -3221  -2503  -2585  -2525  -2516  -2624  -2737  -2814  -2840  -2776  -2724  -2739  -2651  -2710  -2699  -2639  -2674  -2551  -2612  -2733  -2804  -2981  -3052  -3083  -3085  -3089  -3093  -3095  -3099  -2769  -2328  -1564  -1192   -820   -683   -487   -234   -151   -108    -44    284    358    450    515    979   1047    548    719    968    825    815   1309    547    661    701    694    362    657    746    793   1088    822    426    413    580    934    730    983    952   1121   1264   1503   1610   1628   2214   2083   1338   1259   1259   1413   1367   1277   1373   1355   1322   1504   1788   1973   1587   1577   1472   1409   1457   1591   1737   1863   2050   1930   1900   1749   1528   1529   1634   2052   2031   1802   1704   1721   1466   1365   1790   1784   1785   1721   1603   1713   2005   1824   1625   1601   1524   1442   1384   1853   1561   1897   1304   1236   1343   1517   1504   1365   1331   1369   1500   1804   1712   1575   1865   1549   1660   1744   1646   1642   1628   1570   1544   1561   1590   1583   1572   1616
-3346  -3370  -3279  -3367  -3374  -3267  -3203  -3351  -3428  -3385  -3342  -3334  -3303  -3274  -3313  -3405  -3405  -3325  -3260  -3348  -3348  -3293  -3277  -3184  -3105  -3138  -3239  -3251  -3159  -3003  -2934  -3055  -3148  -3104  -2988  -2889  -2776  -2698  -2708  -2725  -2528  -2577  -2543  -2734  -3083  -2194  -2265  -2501  -2526  -2572  -2747  -2807  -2805  -2642  -2720  -2650  -2621  -2657  -2684  -2653  -2660  -2545  -2682  -2585  -2880  -2932  -3042  -3084  -3088  -3091  -3092  -3095  -2876  -2314  -1680  -1388   -979   -839   -582   -529   -425   -196   -122    -79     17    290    374    772    453    312    892    475    588    865   1086    796    461    513    583    991    889    423    392    613    740    885    708    558    478    732   1330   1449   1551   1429   1445   1634   1696   1516   1648   1765   1327   1473   1307   1305   1539   1333   1294   1407   1267   1362   1489   1502   1484   1609   1697   1664   1604   1755   1950   1523   2046   1953   1561   1526   1476   1601   2011   2014   1925   1750   1762   1929   1366   1366   1635   1823   1773   1687   1605   1656   1742   1694   1570   1568   1571   1459   1452   1754   1818   1538   1283   1243   1344   1352   1682   1430   1392   1483   1664   1938   1829   1509   1596   1535   1587   1920   1736   1711   1696   1632   1595   1610   1613   1587   1627   1631
-3372  -3301  -3313  -3374  -3361  -3275  -3148  -3289  -3316  -3293  -3290  -3301  -3299  -3290  -3287  -3337  -3351  -3300  -3279  -3311  -3324  -3305  -3225  -3177  -3131  -3082  -3211  -3188  -3119  -3030  -2886  -2986  -3125  -3177  -3258  -3038  -2732  -2653  -2746  -2621  -2537  -2523  -2719  -2959  -3127  -2311  -2626  -2570  -2596  -2833  -2930  -2844  -2715  -2646  -2703  -2605  -2628  -2615  -2707  -2654  -2593  -2687  -2743  -2750  -2883  -2875  -3081  -3087  -3088  -3093  -3093  -2588  -2439  -2214  -1799  -1392  -1033   -871   -672   -569   -501   -226   -144   -101    -38    540    497    610    170    512    968    898    941    954    566    414    661    831   1400   1393    549    480    616   1040    609    746   1031   1051    846    713    593    867   1391   1590   1469   1351   1243   1714   1542   1256   1339   1290   1393   1325   1258   1339   1268   1445   1254   1258   1270   1448   1536   1491   1499   1591   1677   1677   1677   1578   1527   1631   1496   1496   1444   1713   1755   1901   1710   1690   1670   1945   1367   1515   1625   1841   1791   1638   1604   1704   1874   1714   1638   1622   1711   1520   1632   1651   1556   1656   1448   1255   1275   1543   1449   1488   1535   1584   1770   1994   1911   1646   1456   1419   1568   1827   1812   1766   1826   1764   1764   1660   1678   1660   1654   1601
-3378  -3251  -3285  -3375  -3359  -3226  -3182  -3281  -3332  -3293  -3290  -3327  -3321  -3282  -3301  -3341  -3313  -3265  -3347  -3374  -3292  -3242  -3239  -3191  -3142  -3154  -3225  -3225  -3139  -3101  -2882  -2973  -3071  -3112  -3175  -3141  -2828  -2946  -2865  -2525  -2631  -2533  -3183  -3220  -3221  -2869  -2741  -2666  -2879  -3046  -3087  -3120  -3053  -2935  -2797  -2726  -2628  -2665  -2751  -2700  -2705  -2733  -2703  -2721  -2722  -2888  -3003  -2875  -3091  -3093  -3095  -2559  -2337  -1962  -1770  -1389  -1147   -876   -691   -607   -553   -274   -149   -104    -58    203    245    217    250    501    458   1191   1124    898    923    411    432    474    688   1324   1419   1121   1099   1026    538   1007    866    976   1366   1209   1240    735   1028   1442   1232   1160   1303   1285   1470   1241   1240   1255   1244   1246   1247   1355   1418   1260   1261   1402   1287   1269   1300   1503   1511   1599   1644   1651   1682   1697   1513   1536   1470   1450   1438   1446   1864   1892   1779   1831   1752   1404   1371   1371   1755   1834   1775   1596   1634   1794   1813   1864   1903   1769   1668   1963   1756   1562   1514   2211   1762   1281   1269   1402   1709   1816   2090   1886   1893   2125   2258   2297   1523   1379   1451   1699   1966   1912   1907   1890   1743   1752   1707   1695   1668   1620
-3372  -3208  -3274  -3375  -3256  -3229  -3234  -3255  -3302  -3300  -3284  -3294  -3279  -3312  -3317  -3316  -3310  -3331  -3312  -3333  -3284  -3254  -3247  -3238  -3158  -3163  -3214  -3166  -3180  -3000  -2962  -3019  -3016  -2962  -3367  -3186  -3252  -3411  -2990  -3095  -2977  -2812  -3285  -3573  -3067  -2971  -2778  -2709  -2957  -3164  -3453  -3535  -3442  -3255  -3041  -2923  -2891  -2826  -2901  -2768  -2831  -2835  -2829  -2892  -2876  -2711  -2862  -3040  -3093  -3094  -3097  -2788  -2303  -1762  -1402  -1222  -1084   -877   -661   -615   -559   -330   -156   -102    -70    -35     92    103    226    283    627    989    821    896    483    471    515    938   1146   1205   1649   1388    889    948   1115   1377   1489   1606   1676   1864   1549   1263   1194   1616   1288   1106   1197   1268   1306   1313   1518   1467   1293   1242   1384   1246   1361   1300   1321   1348   1709   1307   1274   1488   1453   1558   1632   1662   1721   1673   1758   1854   1451   1436   1434   1438   1932   2004   1749   1820   1734   1504   1493   1369   1901   1873   1701   1595   1838   1875   1781   1820   1867   1886   1955   1659   1598   1508   1433   1865   1873   1302   1280   1406   1759   2191   2304   2028   1859   1699   1713   1786   1832   1356   1416   1502   1854   1965   1880   1852   1812   1783   1708   1661   1627   1587
-3340  -3150  -3165  -3404  -3256  -3274  -3256  -3268  -3310  -3301  -3301  -3215  -3219  -3289  -3321  -3298  -3267  -3262  -3211  -3237  -3248  -3287  -3332  -3262  -3187  -3156  -3206  -3172  -3089  -3046  -3060  -3079  -3000  -2799  -2985  -3245  -3270  -3295  -3112  -3202  -3092  -2967  -3195  -3344  -3001  -3213  -2667  -2602  -2949  -3369  -3484  -3485  -3451  -3318  -3184  -3073  -3007  -3112  -3070  -2823  -2902  -2786  -3098  -2959  -3006  -2901  -2887  -3007  -3095  -3096  -3097  -3098  -2329  -1567  -1141  -1106  -1020   -937   -788   -665   -561   -389   -248   -171    -99    -46    -22     51    323    292    615    787    807    974    589    925    853   1405   1601   1673   1410   1340   1338    801    884   1419   1612   1826   1541   1335   1015   1094   1245    949   1013   1032   1127    963   1138   1315   1407   1434   1243   1242   1240   1245   1250   1234   1232   1233   1346   1628   1293   1359   1456   1468   1569   1634   1632   1689   1758   1556   1527   1434   1434   1434   1893   2336   2153   1765   1620   1604   1829   1393   2040   1778   1810   1598   1843   1883   1878   1854   1743   1717   1757   1695   1601   1424   1361   1735   1817   1275   1315   1681   1731   1826   2348   2070   1664   1559   1570   1536   1566   1368   1349   1409   1561   1677   1828   1864   1901   1829   1702   1698   1621   1585
-3279  -3155  -3222  -3382  -3378  -3225  -3285  -3318  -3331  -3302  -3318  -3327  -3281  -3305  -3305  -3308  -3256  -3210  -3238  -3219  -3184  -3275  -3279  -3233  -3187  -3150  -3211  -3133  -3116  -3076  -3132  -3170  -3058  -2910  -2868  -3152  -3373  -2598  -2196  -3090  -3086  -3015  -3396  -3265  -3200  -2649  -2214  -2541  -2929  -3219  -3225  -3249  -3303  -3289  -3330  -3292  -3221  -2977  -3084  -3188  -3150  -3173  -3150  -3043  -2997  -2958  -2979  -3036  -3078  -3081  -3079  -3080  -2603  -1628  -1215   -872   -935   -700   -736   -685   -632   -475   -330   -210   -114    -53    -23      0    150    454    378    762    679    599    622   1175   1317   1500    770   1059   1088   1433   1565   1392   1513   1917   1692   1395   1117   1289   1424    833    965    816    785   1008   1522   1432   1503   1382   1293   1291   1408   1244   1241   1240   1247   1227   1228   1229   1244   1411   1413   1421   1382   1433   1481   1515   1610   1682   1683   1682   1610   1434   1434   1448   1884   2037   2079   1647   1619   1733   1934   1668   1844   1809   1775   1652   1871   1871   1988   1818   1687   1862   1865   1659   1381   1405   1322   1628   1482   1312   1486   1767   1915   1722   1693   1751   1770   1849   1773   1579   1498   1383   1338   1379   1546   1709   1997   1699   1855   1800   1785   1703   1640   1581
-3264  -3211  -3187  -3377  -3368  -3149  -3301  -3289  -3300  -3286  -3253  -3185  -3142  -3285  -3247  -3297  -3303  -3255  -3225  -3197  -3192  -3229  -3122  -3113  -3154  -3204  -3214  -3108  -3093  -3079  -3137  -3159  -3100  -3011  -2921  -2973  -2836  -2356  -2110  -2021  -2195  -3084  -3417  -3439  -3100  -2415  -2408  -2521  -2606  -2828  -2941  -2888  -3367  -3556  -3193  -3032  -3144  -3024  -3181  -3231  -3219  -3243  -2948  -2801  -2918  -3022  -3053  -3090  -3109  -3088  -3094  -3112  -2887  -1661  -1223  -1027   -830   -828   -725   -702   -654   -549   -396   -228    -99    -31    -12      7     25    494    481    422    435    573    760   1402   1591    881    787    542    766    501   1047    707   1065    891   1159   1112    678    652   1032   1137    961    739   1073   1155   1888   1795   1368   1287   1293   1290   1393   1271   1310   1354   1335   1226   1227   1271   1230   1379   1363   1373   1376   1408   1490   1534   1553   1547   1550   1582   1567   1434   1434   1546   1777   1944   1376   1513   1650   1815   1965   1782   1945   1752   1843   1807   1821   2113   2039   1824   1820   1747   1547   1477   1656   1371   1297   1288   1511   1463   1529   2061   2300   1741   1344   1532   1797   1919   1820   1592   1728   1581   1324   1416   1785   2172   2125   2029   2105   1930   1788   1732   1674   1618
-3156  -3031  -3174  -3400  -3377  -3199  -3297  -3295  -3289  -3297  -3242  -3162  -3115  -3171  -3261  -3301  -3271  -3226  -3181  -3140  -3192  -3214  -3086  -3060  -3097  -3203  -3243  -3178  -3127  -3136  -3123  -3168  -3121  -3034  -2868  -2746  -2796  -2533  -2400  -2168  -1871  -3001  -3506  -3399  -2978  -2415  -2262  -2315  -2466  -2756  -2778  -3047  -3393  -3116  -2876  -3079  -3077  -2944  -2952  -3035  -3094  -2799  -2831  -2836  -2908  -2936  -3013  -3203  -3117  -3100  -3102  -3100  -3079  -1996  -1297  -1217   -971   -975   -866   -786   -707   -598   -468   -203    -96    -16     -2      5    148    169    273    495   1145    780   1406   1583   1357   1359   1311    603    506    802   1031    962    980    793   1143    826    988   1268   1053    779   1060    812    896   1097   1759   1892   1819   1301   1297   1328   1651   1401   1297   1495   1323   1252   1262   1233   1283   1456   1475   1370   1383   1431   1477   1518   1507   1516   1552   1572   1587   1438   1434   1928   1809   1747   1355   1391   1658   1856   1915   1759   1749   1737   1915   1773   1745   1809   1889   1866   1843   1724   1648   1532   1923   1489   1321   1306   1987   1807   1376   1733   1988   1783   1329   1303   2040   2010   1755   1555   1472   1308   1346   1435   1900   2257   2022   1959   1957   1968   1833   1761   1688   1635
-3003  -2859  -3127  -3385  -3418  -3218  -3285  -3303  -3296  -3290  -3296  -3288  -3255  -3283  -3329  -3301  -3175  -3140  -3195  -3172  -3155  -3218  -3121  -3103  -3153  -3177  -3183  -3060  -3091  -3130  -3170  -3211  -3122  -3087  -2781  -2634  -2712  -2289  -2211  -2394  -2407  -3174  -3440  -3176  -2627  -2139  -1871  -2452  -2584  -2413  -2581  -2588  -2509  -2646  -2845  -2988  -3116  -3177  -3140  -3099  -2973  -2959  -2997  -2949  -2908  -2894  -2992  -3080  -3115  -3113  -3103  -3117  -3078  -2027  -1579   -987  -1032   -925   -869   -844   -747   -616   -475   -185   -111    -70    -29    -11    242    227    463    522    585   1355    898   1466    744    626    801    639    820   1162   1280   1486   1809    638   1085   1536   1283   1417    954    790    773    804    858    974   1460   1954   1675   1564   1325   1437   1342   1336   1449   1440   1472   1460   1325   1283   1270   1303   1341   1386   1414   1443   1513   1488   1512   1622   1529   1556   1562   1433   1447   1664   2188   1438   1355   1422   1817   1876   1684   1683   1691   1929   1819   1864   1783   1901   1989   2067   1793   1673   1944   1853   1560   1346   1557   1635   2196   1811   1333   1424   1668   1828   1368   1283   1476   1810   1505   1504   1286   1297   1399   1634   2005   2154   1910   2044   1865   1887   1803   1741   1727   1679
-2921  -2861  -3121  -3299  -3269  -3124  -3293  -3233  -3300  -3305  -3299  -3297  -3225  -3270  -3340  -3303  -3189  -3164  -3163  -3129  -3146  -3180  -3183  -3173  -3196  -3236  -3149  -3038  -3110  -3166  -3177  -3144  -3153  -3062  -2719  -2688  -2525  -2304  -2832  -3228  -3218  -3356  -3323  -2944  -2611  -2329  -2283  -2578  -2502  -2642  -2760  -2741  -2819  -2837  -2897  -2967  -3063  -3074  -3069  -3036  -3014  -2995  -3036  -3076  -3005  -2958  -3036  -3100  -3107  -3135  -3135  -3120  -2994  -2329  -1454  -1056   -956   -853   -866   -848   -799   -699   -494   -189   -109    -73    -53    -42     41    390    470    551    442    673   1451   1371   1064   1141    714    728    757   1546   1720   1183   1437   1205   1133   1110   1421   1210   1039    880    833    803    824    933   1735   1657   1639   1484   1464   1388   1400   1611   1501   1703   1861   1747   1539   1308   1286   1266   1314   1399   1472   1511   1517   1511   1514   1521   1503   1520   1526   1518   1443   1790   2076   1362   1355   1595   1658   1892   1690   1686   1832   1794   1714   1939   1877   1823   1964   1863   1928   1959   2017   1784   1446   1427   2017   2569   1854   1425   1284   1312   1456   1679   1468   1272   1272   1652   1583   1291   1277   1323   1530   2004   2632   2450   1955   1880   1877   1850   1753   1822   1717   1658
-2989  -3032  -3214  -3211  -2981  -3109  -3318  -3254  -3263  -3304  -3300  -3285  -3121  -3208  -3277  -3290  -3213  -3213  -3237  -3196  -3203  -3237  -3264  -3273  -3259  -3243  -3196  -3127  -3140  -3200  -3245  -3123  -3159  -2981  -2775  -2604  -2462  -2863  -3330  -3521  -3237  -2877  -2873  -3052  -3045  -2788  -2819  -2613  -2787  -2906  -2895  -2946  -2942  -2901  -2796  -2807  -2896  -2879  -2860  -2871  -2775  -2869  -2954  -3055  -3092  -3075  -3085  -3098  -3105  -3149  -3139  -3120  -3114  -2557  -1621  -1161  -1005   -946   -882   -892   -858   -754   -515   -202   -109    -77    -52    -40    -28    262    505    724    994   1158   1313   1313    678    771    611   1054   1730   1393   1844   1209   2128   1040   1108    950   1067   1080   1339   1126    813    822    806    890   1106   1475   1961   1540   1444   1462   1468   1929   1727   2035   2099   2167   1821   1408   1325   1314   1366   1437   1488   1546   1551   1493   1509   1557   1490   1497   1497   1527   1456   1759   2285   1493   1367   1483   1651   1819   1739   1691   1716   1721   1739   1792   1977   1747   2057   1904   1892   1798   1957   1809   1922   1519   1976   1879   1834   1460   1254   1254   1268   1418   1484   1304   1262   1463   1498   1273   1274   1326   1758   2286   1854   1634   1992   1782   1673   1785   1703   1670   1679   1657
-3225  -3276  -3331  -3258  -2846  -3048  -3219  -3056  -3206  -3280  -3300  -3100  -3170  -3233  -3211  -3284  -3223  -3225  -3257  -3210  -3262  -3204  -3136  -3178  -3240  -3275  -3224  -3127  -3094  -3126  -3157  -3129  -3104  -2808  -2546  -2649  -2471  -2838  -3253  -3493  -2659  -2400  -2145  -2229  -2904  -3043  -2914  -2989  -2926  -2927  -2961  -2948  -2923  -2904  -2833  -2839  -2836  -2842  -2851  -2748  -2649  -2821  -2984  -3078  -3088  -3099  -3108  -3104  -3102  -3160  -3158  -3140  -3117  -2654  -1868  -1160   -895   -994   -961   -911   -913   -843   -413   -154   -105    -84    -63    -44    -25     69    176    690    896   1041   1070   1220    819    405    945   1506   1725   1272   1459   1981   1836   1475    928    834   1092   1421   1287   1010    839    822    869    947   1193   1411   2363   1585   2201   1746   1760   1854   1808   1820   1947   1865   2007   1347   1307   1344   1416   1463   1489   1512   1573   1529   1453   1499   1526   1542   1403   1365   1485   1908   2022   1630   1367   1372   1426   2145   1832   1692   1783   1794   1995   1908   1867   1730   1700   1778   1996   1862   1789   1991   2170   1839   1570   1427   1671   1574   1240   1244   1252   1304   1381   1256   1257   1481   1470   1267   1274   1311   1583   2288   1627   1424   1434   1628   1676   1806   1781   1633   1633   1585
-2984  -3030  -2773  -2619  -2895  -3215  -3209  -3038  -3259  -3319  -3281  -3163  -3251  -3229  -3264  -3278  -3276  -3284  -3280  -3191  -3195  -3150  -3095  -3181  -3258  -3237  -3141  -3025  -3062  -3055  -3091  -3185  -3088  -2695  -2760  -2487  -2352  -2730  -3165  -3118  -2655  -1992  -1752  -2411  -2754  -2745  -3009  -2945  -3002  -3134  -3064  -2937  -2968  -2904  -2870  -2913  -2900  -2941  -2922  -2892  -2917  -2972  -2988  -3049  -2975  -2961  -3060  -3123  -3116  -3163  -3150  -3132  -3122  -3073  -2497  -1491   -801   -925   -964  -1024   -983  -1001   -572   -163   -102    -86    -70    -53    -27      1    220     62    731    539    819   1124   1114    694    650   1113   1177    971   1648   1804   1727   1912   1455    855   1192   1495   1617   1095   1519    921    977   1230   1748   2156   1963   1964   1995   1839   1522   1587   1501   1512   1536   1546   1471   1327   1328   1362   1408   1523   1462   1480   1427   1319   1333   1342   1349   1354   1328   1350   1458   1789   1903   1723   1373   1363   1379   1876   1814   1702   1700   1820   1914   1847   1717   1645   1703   1911   1755   1591   1657   2460   2256   1519   1247   1239   1235   1239   1231   1484   1326   1256   1257   1257   1256   1349   1271   1262   1268   1312   1963   2476   1609   1370   1370   1459   1611   1553   1526   1433   1637   1582
-2683  -2652  -2268  -2367  -3009  -3278  -3137  -3024  -3259  -3342  -3311  -3258  -3255  -3269  -3254  -3292  -3276  -3274  -3249  -3154  -3225  -3110  -3168  -3215  -3232  -3159  -3114  -3155  -3071  -2978  -3012  -3163  -3415  -2930  -2551  -2427  -2268  -2676  -3080  -3113  -2598  -2009  -2024  -2380  -2420  -2737  -2908  -3105  -3255  -3199  -3126  -3177  -3031  -2965  -2916  -2912  -2997  -3039  -3073  -3085  -3088  -3088  -3065  -3023  -3031  -3059  -3066  -3118  -3126  -3160  -3147  -3121  -3123  -3111  -2800  -1675  -1121   -941   -988  -1081  -1044  -1054   -701   -173   -114    -91    -76    -62    -30      1    384     25    771   1086   1104   1140    857    750    496    551   1188   1739   1776   1536   1529   1803   1616    905   1072   1238   1299   1750   1800   1336   1164   1349   2144   3828   2265   1613   1394   1401   1664   1485   1421   1337   1299   1366   1350   1352   1353   1368   1384   1513   1560   1467   1360   1444   1414   1317   1346   1415   1337   1415   1585   1796   2220   2229   1433   1361   1367   1900   1732   1801   1768   1728   1925   1774   1815   1777   1868   1861   1434   1473   1734   2239   1853   1253   1305   1224   1219   1222   1227   1546   1476   1578   1283   1258   1258   1260   1275   1260   1265   1350   1791   2009   1482   1349   1349   1492   1403   1390   1410   1444   1574   1810
-2707  -2558  -2426  -2743  -3180  -3175  -2909  -3011  -3256  -3278  -3272  -3220  -3337  -3259  -3260  -3284  -3254  -3273  -3243  -3120  -3056  -3103  -3205  -3116  -3083  -2999  -2959  -3074  -3062  -2969  -2864  -2714  -2342  -2618  -2527  -2391  -1980  -2653  -3035  -3161  -2641  -2097  -2377  -2410  -2534  -2723  -2977  -3158  -3205  -3269  -3188  -3072  -3046  -2999  -3013  -3053  -3060  -3054  -3064  -3086  -3098  -3085  -3089  -3063  -3069  -3040  -3081  -3115  -3112  -3146  -3149  -3147  -3124  -3117  -2824  -1911  -1372  -1109  -1121  -1164  -1101  -1056   -754   -268   -148   -101    -83    -66    -24    169    145    406    151   1081    577   1134    860    497    994    459   1123   1445   1240   1168    959   1777   1661   1200   1222   1215   1719   2111   1965   2400   1426   1140   1627   1966   1682   1361   1225   1201   1620   1498   1407   1305   1196   1349   1357   1353   1318   1301   1334   1298   1644   1558   1601   1767   1729   1464   1496   1468   1334   1423   1601   1819   2237   2662   1486   1365   1493   1946   2010   2028   1826   1811   1801   1882   1879   1734   1672   1565   1328   1744   1892   1761   1553   1314   1327   1218   1215   1219   1343   2369   2118   1678   1281   1260   1258   1270   1587   1329   1263   1494   1453   1612   1344   1332   1448   1711   1397   1405   1534   1509   1804   2142
-2264  -2750  -2946  -3125  -3178  -2966  -2734  -2952  -3179  -3193  -3268  -3331  -3290  -3268  -3252  -3287  -3271  -3255  -3244  -3082  -3099  -3251  -3284  -3230  -3238  -3206  -2930  -2993  -3099  -3048  -2866  -2602  -2367  -2267  -2100  -1815  -1843  -2583  -3021  -3249  -2575  -2262  -2649  -2443  -2729  -2696  -3001  -3094  -3191  -3084  -3094  -3029  -2987  -3037  -3049  -3043  -3050  -3061  -3069  -3077  -3098  -3088  -3088  -3079  -3077  -3078  -3103  -3131  -3161  -3139  -3145  -3143  -3127  -3115  -3053  -1881  -1524  -1210  -1166  -1167  -1126  -1078   -857   -574   -188   -119    -88    -63    -22    241    445    499    420    300    948    429    253    637   1270    825    498    903   1489   1161   1244   2132   2031   1432   1778   1759   1646   1390   1845   1781   1325   1053   1066   1324   1041   1049   1108   1140   1219   1262   1396   1302   1167   1153   1333   1395   1355   1314   1288   1270   1574   1600   1359   1554   2054   1765   1598   1581   1340   1442   1590   1783   1962   2430   1827   1363   1381   2248   2103   1955   1725   1744   1870   1786   1762   1752   1648   1724   1425   1312   2038   1882   1397   1261   1216   1215   1214   1215   1823   1735   2396   1428   1264   1261   1263   1332   1680   1360   1277   1516   1558   1347   1322   1326   1458   1534   1414   1572   1702   1508   1607   2012
-2510  -3090  -3042  -3208  -3106  -2831  -2732  -3054  -3250  -3269  -3276  -3271  -3231  -3283  -3306  -3275  -3271  -3261  -3216  -3114  -3213  -3311  -3328  -3245  -3369  -3404  -2935  -3188  -3167  -3119  -2930  -2665  -2476  -2441  -2376  -2140  -2136  -2975  -3156  -3247  -2554  -2595  -2684  -2794  -2718  -2847  -2946  -3137  -3017  -3031  -2992  -2956  -3020  -3036  -3038  -3073  -3060  -3080  -3066  -3081  -3104  -3098  -3090  -3086  -3104  -3104  -3108  -3190  -3140  -3101  -3112  -3104  -3110  -3110  -3087  -2116  -1543  -1232  -1200  -1228  -1198  -1190   -962   -721   -362   -137    -91    -55    -13    498    150    604    567    849    296    223    827    575   1091   1515    920    754    758   1271    974   1965   1882   2040   2167   1902   1275   1685   1780   1857   1432   1082    868   1199    942    921   1164   1443   1579   1323   1301   1262   1159   1112   1099   1065   1492   1325   1278   1263   1266   1273   1313   1466   1950   1808   1863   1666   1421   1472   1450   1692   2064   2137   2406   1646   1366   1919   1753   1687   1802   1976   1723   1635   1691   1902   1628   1753   1690   1245   1264   1488   1263   1213   1211   1208   1209   1498   1985   1396   1334   1266   1266   1265   1269   1402   1795   1409   1283   1519   1847   1339   1320   1340   1736   1499   1710   1901   1481   1452   1534   1806
